# .PCD v0.7 - Point Cloud Data file format
VERSION 0.7
FIELDS x y z
SIZE 4 4 4
TYPE F F F
COUNT 1 1 1
WIDTH 497
HEIGHT 1
VIEWPOINT 0 0 0 1 0 0 0
POINTS 497
DATA ascii
0.83578384 0.09468022 -0.15034628
0.78038728 -0.060721971 -0.14339168
0.78580022 -0.057229988 -0.14331762
0.79536724 -0.056557864 -0.14411455
0.8059271 -0.055612069 -0.14494613
0.81598955 -0.055985827 -0.14478943
0.82364726 -0.056203108 -0.14413519
0.83562368 -0.054331757 -0.14471459
0.84256911 -0.055521794 -0.14525378
0.75572461 0.089545175 -0.14207934
0.76688576 0.088743143 -0.1413362
0.77048206 0.089543901 -0.14116345
0.79442573 0.089461803 -0.14513358
0.80650014 0.088755056 -0.14298907
0.81028223 0.08920525 -0.14819306
0.71786487 0.090251118 -0.14135757
0.75790679 0.090468451 -0.14347419
0.76069069 0.090733483 -0.14453602
0.77166861 0.090980127 -0.14237565
0.79479933 0.093539432 -0.14652024
0.80650133 0.092040576 -0.14632826
0.81298453 0.092772998 -0.14615132
0.82597136 0.093028992 -0.14641082
0.83324218 0.093942463 -0.1459429
0.70843232 -0.053779434 -0.13548516
0.71269548 -0.056217592 -0.13481343
0.72680068 -0.056307811 -0.13727401
0.73570538 -0.056056101 -0.13557717
0.74442577 -0.057118744 -0.13483943
0.75498831 -0.056216348 -0.13389291
0.76569492 -0.054844573 -0.13540374
0.77482098 -0.055521749 -0.13441375
0.78490639 -0.0544894 -0.13369772
0.79488915 -0.054518145 -0.13427046
0.8043654 -0.054078091 -0.13427183
0.81504971 -0.053199802 -0.13442798
0.82592046 -0.053295631 -0.1353825
0.83563781 -0.052321419 -0.13592555
0.84537649 -0.052439 -0.13594073
0.85047829 -0.052430317 -0.1331356
0.70720005 -0.044863027 -0.13513157
0.7108475 -0.045368806 -0.1347571
0.79876482 -0.048628747 -0.13013063
0.80352068 -0.048229758 -0.13048881
0.81625736 -0.045288347 -0.13121437
0.82353818 -0.045706067 -0.13102508
0.83518589 -0.045455538 -0.13268068
0.84470206 -0.045480132 -0.1319802
0.85030562 -0.04870078 -0.13018718
0.70764267 -0.035191402 -0.13598365
0.71060979 -0.034422152 -0.13373443
0.80345792 -0.037140157 -0.1302485
0.81681216 -0.037279986 -0.1304436
0.82403934 -0.034276836 -0.13047777
0.83520204 -0.034998033 -0.13138252
0.84335601 -0.036058035 -0.13120157
0.70647669 -0.025152072 -0.13508154
0.71063542 -0.024846647 -0.13489667
0.79752833 -0.027340919 -0.13003677
0.80721945 -0.021254664 -0.13066696
0.81485605 -0.023923896 -0.13066752
0.82657057 -0.026399814 -0.13072674
0.83484465 -0.025022557 -0.13138005
0.84403783 -0.026280403 -0.13050923
0.70749873 -0.014737196 -0.13454668
0.71024007 -0.016391614 -0.13724363
0.8059566 -0.013536637 -0.13046072
0.81471908 -0.01546665 -0.13060553
0.82874721 -0.015520371 -0.13113408
0.83413965 -0.014407776 -0.13251118
0.84360635 -0.011563505 -0.13333432
0.85171294 -0.014673889 -0.1309796
0.70726824 -0.0052329926 -0.13475728
0.71017301 -0.0055585448 -0.13468233
0.79914123 -0.0049457252 -0.13044317
0.80372238 -0.0074312571 -0.13023978
0.81767678 -0.0045061558 -0.13031486
0.82330245 -0.0023849839 -0.13065171
0.83668888 -0.0049852021 -0.1323972
0.84336954 -0.0069709541 -0.13155523
0.7067824 0.0049786028 -0.1354022
0.71030438 0.002160117 -0.13225617
0.80397344 0.0069886073 -0.13024667
0.81661069 0.0049621304 -0.1316728
0.82365012 0.0051897257 -0.13095112
0.8366667 0.0046682693 -0.131961
0.84151268 0.0040148254 -0.13066936
0.70590806 0.015316956 -0.13513379
0.76781666 0.019864783 -0.1307015
0.79986566 0.012031704 -0.13005009
0.80686468 0.013637203 -0.1303511
0.8162685 0.01516152 -0.13124843
0.82281411 0.013776845 -0.13121492
0.83613694 0.01531219 -0.13236304
0.8430081 0.015507211 -0.13091762
0.70621002 0.024945693 -0.13480489
0.80651319 0.027538558 -0.13054892
0.8154999 0.024679316 -0.13088341
0.82329994 0.025585363 -0.1305909
0.83743221 0.025151722 -0.13323113
0.84161097 0.025083467 -0.13096443
0.70694882 0.035134178 -0.13491924
0.797252 0.033790827 -0.13019197
0.80545115 0.03432611 -0.1305187
0.81563336 0.035084579 -0.13079737
0.82463825 0.035378449 -0.13129731
0.83599329 0.033948969 -0.13253945
0.84079164 0.033860326 -0.1317521
0.70632994 0.044921327 -0.13525084
0.74558699 0.046917856 -0.13102189
0.79856116 0.043033868 -0.13020018
0.80312908 0.041569423 -0.13043591
0.8161568 0.043957964 -0.1307195
0.82394683 0.045342162 -0.1310464
0.83580858 0.046194565 -0.13342385
0.8431533 0.047594875 -0.13453315
0.70653468 0.055204351 -0.13503964
0.75720048 0.059782535 -0.13006482
0.76788497 0.054042444 -0.13012953
0.80721474 0.057837486 -0.13325195
0.81513119 0.055996623 -0.1322047
0.82491261 0.056045484 -0.13250449
0.83518314 0.05547348 -0.13284093
0.8433277 0.055460446 -0.13276702
0.70631504 0.065078273 -0.13477242
0.75489247 0.064624473 -0.13062254
0.76764357 0.060121119 -0.13022661
0.7734921 0.063284665 -0.13006946
0.78541625 0.065776624 -0.13036706
0.79546303 0.064605892 -0.13044742
0.80586797 0.063154556 -0.13223736
0.81429434 0.065039374 -0.13251658
0.82464099 0.064788349 -0.13204508
0.83447474 0.063967265 -0.13145888
0.84200865 0.062108368 -0.13153449
0.69968081 0.077986598 -0.13521732
0.70570594 0.075252719 -0.13457367
0.72247261 0.07394205 -0.13073657
0.76509714 0.078383371 -0.13142076
0.77676243 0.076894656 -0.1316243
0.78516573 0.077754319 -0.13073397
0.79558367 0.075658731 -0.13136159
0.80405027 0.073679961 -0.13097328
0.81534946 0.074862637 -0.13309582
0.82433206 0.074486576 -0.13242051
0.83506 0.07602571 -0.13284136
0.8429234 0.07966122 -0.13397005
0.70700079 0.083342813 -0.13448805
0.71530551 0.087756157 -0.13467449
0.72103566 0.089706108 -0.1361315
0.73549736 0.087647289 -0.13479075
0.74934661 0.088621601 -0.13340566
0.75391769 0.08798904 -0.13473451
0.76407373 0.084974833 -0.1334653
0.77493119 0.085986026 -0.13290051
0.78414488 0.081566185 -0.13047986
0.79563648 0.081678264 -0.13071416
0.80600512 0.088685259 -0.13492614
0.81572592 0.087455146 -0.13249812
0.82412386 0.086029835 -0.13211061
0.83353984 0.086531907 -0.13120687
0.84361696 0.085147165 -0.13207686
0.71823788 0.090296216 -0.13626739
0.72116566 0.091191277 -0.13784449
0.73877531 0.090745427 -0.13196248
0.75495446 0.090687275 -0.13563091
0.77646303 0.091119006 -0.13336369
0.78491896 0.092335492 -0.13208412
0.80900282 0.090544917 -0.13851731
0.81367624 0.09135662 -0.13625617
0.825665 0.091342404 -0.13578673
0.83493125 0.092901617 -0.13501149
0.84302205 0.0922307 -0.13216288
0.70874709 -0.052761856 -0.12665823
0.71316433 -0.054258294 -0.1250945
0.72403842 -0.052710138 -0.12376127
0.73600382 -0.052686464 -0.12592745
0.74466157 -0.053957459 -0.12638588
0.75540477 -0.052491497 -0.12730691
0.76498431 -0.052112002 -0.12779289
0.77528125 -0.052335627 -0.12490783
0.78397989 -0.051858783 -0.12477981
0.79256755 -0.053977869 -0.12410776
0.83628029 -0.050127029 -0.12532319
0.84807754 -0.051296528 -0.12351112
0.70833987 -0.044323336 -0.12575102
0.71299762 -0.044816751 -0.12387966
0.72435188 -0.044993397 -0.1229234
0.73467845 -0.04516625 -0.12225714
0.74652004 -0.044795264 -0.12406829
0.75443107 -0.045334294 -0.12357514
0.76517844 -0.045104332 -0.12463449
0.77534878 -0.045073006 -0.12425787
0.78488511 -0.045423958 -0.1254008
0.79396182 -0.04421499 -0.12523881
0.80446762 -0.044057578 -0.12784217
0.81588405 -0.045790419 -0.12427552
0.82414395 -0.04275924 -0.12619157
0.8327201 -0.045068957 -0.12437498
0.84611225 -0.045623936 -0.12560466
0.85109609 -0.046165865 -0.12353384
0.70748496 -0.035925485 -0.12655526
0.71324724 -0.034372263 -0.1240783
0.72475946 -0.035232637 -0.12334015
0.73553437 -0.034834489 -0.1235713
0.74412346 -0.034758765 -0.12369053
0.75424463 -0.035325859 -0.12332796
0.76517856 -0.035857584 -0.12329229
0.77556366 -0.035392232 -0.12471421
0.7847535 -0.035293154 -0.12465231
0.79486388 -0.034820274 -0.12488016
0.80503953 -0.034683138 -0.12637936
0.81489778 -0.03427301 -0.12690137
0.82506919 -0.035784557 -0.12557188
0.83241272 -0.033763319 -0.12248275
0.84543794 -0.034229811 -0.12565054
0.85192931 -0.039916068 -0.12702942
0.70840287 -0.025555344 -0.12638237
0.71246558 -0.024710596 -0.12391407
0.72472924 -0.025110835 -0.12288053
0.73565382 -0.02438814 -0.12395732
0.7439872 -0.024130264 -0.12323995
0.75456083 -0.024219256 -0.12472498
0.76599973 -0.025068386 -0.12467553
0.77489817 -0.025157863 -0.12382057
0.78420472 -0.024399729 -0.12494948
0.79594857 -0.025641803 -0.12614861
0.80432504 -0.024952076 -0.12499761
0.81621021 -0.024556832 -0.12586015
0.824314 -0.025205964 -0.12581784
0.83493531 -0.024848763 -0.12446718
0.84391278 -0.025723919 -0.12476972
0.70881039 -0.015240083 -0.12713496
0.71294814 -0.015243419 -0.12348952
0.72426802 -0.01530791 -0.12331188
0.73461384 -0.015069476 -0.12308389
0.74470705 -0.014933946 -0.12191387
0.75526994 -0.014376084 -0.1244325
0.76569414 -0.014621393 -0.12341327
0.77443951 -0.015101004 -0.12489323
0.78499705 -0.015143591 -0.12482236
0.79477382 -0.014972937 -0.12564607
0.80492115 -0.015099535 -0.12525727
0.81546479 -0.014412574 -0.12539667
0.82403868 -0.01524696 -0.12669992
0.8349219 -0.015008664 -0.12457206
0.84508663 -0.016824385 -0.12425903
0.85250115 -0.013783719 -0.1267802
0.70748633 -0.0047704997 -0.12668343
0.71351439 -0.0048260475 -0.12391023
0.72531801 -0.0050491835 -0.12414844
0.73498648 -0.0039206063 -0.123254
0.7461077 -0.0056593218 -0.12322909
0.75519198 -0.0046283118 -0.12355212
0.76459062 -0.0045362446 -0.12389553
0.77580422 -0.0053044688 -0.12319855
0.78502321 -0.005493267 -0.12585671
0.79473275 -0.0045310953 -0.12409478
0.8059774 -0.0050322665 -0.12709287
0.81442988 -0.0058869207 -0.12542452
0.82422447 -0.0048113181 -0.12591265
0.83460701 -0.0044375216 -0.12382563
0.84327143 -0.0025171128 -0.12673602
0.85241681 -0.0054062931 -0.12582374
0.70731711 0.0053595258 -0.1261131
0.7141335 0.0050076204 -0.12239037
0.72490036 0.0048618913 -0.12368834
0.73317051 0.0044762478 -0.12238133
0.74791735 0.0043297028 -0.12505844
0.75471425 0.0047601648 -0.12307367
0.7645238 0.0042531355 -0.12282006
0.77589744 0.0048259334 -0.12425663
0.78488302 0.0053133229 -0.12451237
0.79467416 0.0049060197 -0.12499215
0.80449498 0.0045523755 -0.12541862
0.81501776 0.004908395 -0.12420923
0.8243686 0.0051918244 -0.12475473
0.8348065 0.0037950566 -0.12475044
0.84424794 0.0049652453 -0.1258226
0.85226607 0.0036439255 -0.12429219
0.7074483 0.014795609 -0.12647052
0.7136693 0.015094794 -0.12283383
0.72494566 0.015423768 -0.12289377
0.73514396 0.01514549 -0.12277881
0.74527651 0.015299347 -0.12503844
0.75384051 0.0157164 -0.12413846
0.76591015 0.014240633 -0.12341584
0.7743091 0.015656793 -0.12406559
0.78480208 0.014814627 -0.12493203
0.79459918 0.014885914 -0.12546512
0.80468917 0.014907761 -0.12509492
0.81541121 0.015640426 -0.12464296
0.82483894 0.014295154 -0.12472289
0.8341127 0.014961304 -0.12408508
0.84541625 0.015105071 -0.12504204
0.85037136 0.015232626 -0.1235074
0.70785022 0.024795869 -0.1261591
0.71428859 0.025097637 -0.12298501
0.72529191 0.025648102 -0.12351087
0.73510027 0.025979629 -0.12468746
0.74477386 0.02456193 -0.12459487
0.75570267 0.025392348 -0.12397116
0.76526213 0.025009084 -0.12453729
0.7742933 0.02517622 -0.12445852
0.78509271 0.024727691 -0.12559132
0.79430461 0.024894964 -0.12489833
0.80506098 0.025097799 -0.12464152
0.81512362 0.025304863 -0.1228058
0.82413805 0.024850432 -0.12375045
0.83521134 0.024826741 -0.125292
0.84500456 0.024403863 -0.12611346
0.70886004 0.034885012 -0.12714261
0.7129001 0.03521559 -0.12315808
0.72546834 0.035269007 -0.12359419
0.73430234 0.034382883 -0.12236919
0.74442798 0.035988588 -0.12387118
0.75590676 0.034502897 -0.12486253
0.76502728 0.034937914 -0.12397235
0.7749939 0.034932513 -0.12434575
0.78553182 0.035169352 -0.12531994
0.79551262 0.035346031 -0.12535742
0.80507064 0.034807961 -0.12478508
0.81496084 0.034394346 -0.12410912
0.82429743 0.035813108 -0.12427834
0.83408785 0.035660222 -0.12394692
0.84513253 0.032680202 -0.12660983
0.70795774 0.044660442 -0.12678808
0.71334416 0.045095127 -0.12249019
0.72449183 0.045155112 -0.12256653
0.73435569 0.044254702 -0.12183581
0.74449933 0.044895887 -0.12381584
0.75501728 0.044783615 -0.1254729
0.7656213 0.044416148 -0.12434646
0.77500403 0.044769913 -0.12464302
0.78504157 0.045388408 -0.12504378
0.79507267 0.044800159 -0.12552504
0.8045249 0.045367844 -0.12557891
0.8148374 0.044476055 -0.12507312
0.82492393 0.044448189 -0.12547237
0.83464283 0.045078177 -0.12398888
0.84113008 0.045625225 -0.12389142
0.70812386 0.055239104 -0.12681751
0.71358854 0.055256862 -0.12329174
0.72391814 0.055839151 -0.1242906
0.73579085 0.056679122 -0.12567912
0.74445575 0.054717097 -0.12411078
0.7552979 0.054825272 -0.12358692
0.76557124 0.055451274 -0.12502275
0.77487898 0.054972645 -0.12531468
0.78516346 0.054662455 -0.12463862
0.79311526 0.054963622 -0.12347914
0.80518728 0.055063684 -0.12337286
0.81209552 0.055315427 -0.12171376
0.82548636 0.055325575 -0.12512527
0.8355794 0.05428879 -0.12530929
0.8421222 0.05530132 -0.12482206
0.70813149 0.065081231 -0.12629925
0.71469605 0.06452921 -0.12218356
0.72480226 0.06437812 -0.12272537
0.73590308 0.06451685 -0.12309001
0.74437684 0.065095805 -0.12348883
0.75557882 0.065370485 -0.12488768
0.76497078 0.064695776 -0.12476196
0.77473003 0.06500873 -0.12499109
0.78493243 0.065414041 -0.12460761
0.79486829 0.065021493 -0.12494709
0.80512822 0.065031901 -0.12462064
0.81388956 0.064981341 -0.12380502
0.82589084 0.064902693 -0.12541498
0.83424485 0.064843483 -0.1252699
0.84429044 0.065658338 -0.12505253
0.7081545 0.075371251 -0.12594165
0.71445662 0.075237229 -0.12316001
0.72598362 0.075896449 -0.12466169
0.73467821 0.075110957 -0.12495905
0.74533564 0.074969575 -0.1236036
0.75419724 0.074927963 -0.12424932
0.76550168 0.074718237 -0.12411714
0.77455115 0.074819207 -0.12428795
0.78469986 0.074704006 -0.12507673
0.79476076 0.074943893 -0.12386093
0.80477005 0.075919449 -0.12570514
0.81461823 0.074690565 -0.12447225
0.82490999 0.075475991 -0.12565783
0.83458573 0.075345986 -0.12508409
0.84612262 0.073734164 -0.12564015
0.70737505 0.082996644 -0.12675041
0.71501046 0.084202759 -0.12517464
0.72408772 0.084506609 -0.12498157
0.73479229 0.084751815 -0.12517814
0.74525607 0.084616303 -0.12467194
0.75500304 0.08514332 -0.12477748
0.76535094 0.085037619 -0.12658325
0.77473027 0.084878124 -0.12597032
0.7848255 0.08455842 -0.12688021
0.79510051 0.085180052 -0.12639059
0.80531472 0.084738649 -0.1266436
0.81546813 0.084535226 -0.12701698
0.82598221 0.084507786 -0.12784678
0.83509517 0.08428885 -0.12709028
0.84464091 0.085425057 -0.12657334
0.8524251 0.089005798 -0.12829508
0.72224063 0.090245113 -0.12751752
0.73863333 0.090129428 -0.12780088
0.74479955 0.090821221 -0.12848483
0.754426 0.090775445 -0.12906443
0.76737905 0.090226337 -0.12937385
0.786322 0.090640068 -0.12948011
0.7929365 0.090810269 -0.12917003
0.8054049 0.090217561 -0.128649
0.84765697 0.090560757 -0.12938589
0.85236347 0.090126991 -0.12931627
0.71548438 -0.052391775 -0.1183843
0.72542703 -0.051257305 -0.11856093
0.7335552 -0.051187344 -0.11840939
0.7459619 -0.050705727 -0.11859976
0.75443631 -0.051214494 -0.11901262
0.76023066 -0.050367266 -0.11976081
0.77978456 -0.052830637 -0.11980107
0.78149092 -0.054876827 -0.11949554
0.7166878 -0.045096822 -0.11846511
0.72437829 -0.045224145 -0.11794844
0.73678458 -0.046889134 -0.11907531
0.74369103 -0.044787046 -0.11936488
0.755238 -0.044636004 -0.11922197
0.76088208 -0.048031688 -0.11967681
0.77803314 -0.045419335 -0.11999363
0.78167164 -0.044597473 -0.11975904
0.7937147 -0.045016699 -0.11954093
0.71747422 -0.03494741 -0.11871613
0.72489071 -0.034433153 -0.11832669
0.7355125 -0.034487169 -0.11907233
0.7446481 -0.034481809 -0.11908596
0.75586826 -0.035811223 -0.1191773
0.76368278 -0.031144511 -0.11978523
0.71520311 -0.02504815 -0.11912959
0.72446311 -0.024912715 -0.11890285
0.7352497 -0.024973243 -0.11912745
0.74535513 -0.025638284 -0.11936545
0.75442344 -0.02506466 -0.11898485
0.76328427 -0.025316531 -0.11945925
0.71630931 -0.01548411 -0.11887562
0.72441602 -0.014735642 -0.11873581
0.73531795 -0.015258023 -0.11922803
0.7456733 -0.015598617 -0.11974791
0.7549634 -0.015163173 -0.11938521
0.76293778 -0.015544667 -0.11938991
0.77089947 -0.013074338 -0.11978398
0.71515781 -0.0039383271 -0.11977857
0.72455215 -0.0047543058 -0.11891145
0.73393983 -0.0046751411 -0.11855302
0.746463 -0.0030031966 -0.1195177
0.75315887 -0.0066079432 -0.11950667
0.76505625 -0.0040064678 -0.11966009
0.77024889 -0.0046113431 -0.1199047
0.78057587 -0.0035249889 -0.1196381
0.71715248 0.005004175 -0.11969305
0.7244364 0.0047314875 -0.11897556
0.73476851 0.0049146144 -0.11896523
0.74447 0.0050417399 -0.11882997
0.75181359 0.0063687447 -0.11921906
0.76521283 0.0065151611 -0.11963119
0.77019751 0.0048441142 -0.11970893
0.71552783 0.015020134 -0.11960026
0.7253859 0.013876528 -0.11966468
0.73367077 0.014212285 -0.11963584
0.74507308 0.014771149 -0.11946799
0.75527912 0.014446993 -0.11927834
0.76514959 0.014675577 -0.11962434
0.77054787 0.012775004 -0.11979777
0.7179296 0.025170309 -0.1194213
0.72545785 0.024365978 -0.11942131
0.73447508 0.025236139 -0.11940383
0.74504131 0.025154239 -0.11947808
0.75199652 0.025993897 -0.11906995
0.77541906 0.025483476 -0.11984173
0.71648288 0.035601486 -0.11903764
0.72364467 0.035595685 -0.11926375
0.73495305 0.035766274 -0.11972207
0.74642974 0.034144413 -0.11945499
0.75080639 0.037398636 -0.11931682
0.71684515 0.043579116 -0.11948686
0.72318196 0.045025744 -0.11933989
0.73490536 0.044630192 -0.11974873
0.74683124 0.044320423 -0.11955962
0.75292039 0.045603048 -0.11871427
0.71756071 0.054220948 -0.11966071
0.72584248 0.054758091 -0.11954095
0.7326858 0.055279721 -0.11912552
0.74551803 0.050164878 -0.11967278
0.75528783 0.05148641 -0.11966515
0.81266952 0.059519067 -0.11974475
0.71720523 0.068149254 -0.11981549
0.72682965 0.063542433 -0.11978541
0.71662086 0.075419702 -0.11965171
0.72640193 0.073482953 -0.11957616
0.7318213 0.075104281 -0.11977962
