# .PCD v0.7 - Point Cloud Data file format
VERSION 0.7
FIELDS x y z
SIZE 4 4 4
TYPE F F F
COUNT 1 1 1
WIDTH 187
HEIGHT 1
VIEWPOINT 0 0 0 1 0 0 0
POINTS 187
DATA ascii
0.79381722 -0.19819801 -0.14329065
0.76885617 -0.2506341 -0.13931885
0.77585864 -0.25116944 -0.1331605
0.75894976 -0.24040802 -0.13812478
0.76443368 -0.24455351 -0.13559444
0.77170491 -0.24905103 -0.13316458
0.75665003 -0.23491578 -0.13422494
0.76123971 -0.23577456 -0.13475356
0.75543898 -0.22542517 -0.13492867
0.76088619 -0.22380894 -0.13429976
0.75693262 -0.2171835 -0.13470861
0.76314533 -0.21404918 -0.13475043
0.76641315 -0.20696449 -0.13401638
0.77451205 -0.20447037 -0.13526915
0.78431171 -0.20156543 -0.13474995
0.79293281 -0.20083857 -0.1347611
0.7890296 -0.19964367 -0.13689297
0.79212064 -0.19851178 -0.13521099
0.77872854 -0.25076556 -0.12925526
0.78027266 -0.25143674 -0.12847182
0.76685619 -0.24279401 -0.12634933
0.77402478 -0.24673486 -0.12443213
0.75862896 -0.23270896 -0.12729318
0.76376575 -0.23564295 -0.12456231
0.75810373 -0.2251505 -0.12544712
0.76300621 -0.22462533 -0.12502129
0.75855488 -0.21718758 -0.12861332
0.76477164 -0.21473166 -0.12522237
0.77160811 -0.21153431 -0.12199244
0.76640934 -0.20731714 -0.12550983
0.77528089 -0.20624487 -0.12483895
0.78509694 -0.20274304 -0.12527111
0.79274821 -0.20154907 -0.12467545
0.79332381 -0.19905971 -0.12789148
0.76903522 -0.24097566 -0.11633934
0.7732054 -0.24431945 -0.11529671
0.76592165 -0.23465592 -0.11522299
0.75930858 -0.22576165 -0.11830164
0.76410729 -0.22488454 -0.11457593
0.76639789 -0.21620204 -0.11522658
0.77199304 -0.2123125 -0.11483499
0.77663827 -0.20699957 -0.11406013
0.78466702 -0.20241483 -0.1152003
0.79062319 -0.20152158 -0.11842261
0.78927475 -0.19977687 -0.11479411
0.79020023 -0.19974986 -0.11308831
0.76953048 -0.24060173 -0.10754696
0.77197218 -0.2429997 -0.10474077
0.76720488 -0.23434593 -0.10527305
0.77034748 -0.23882695 -0.10182901
0.76521403 -0.22498628 -0.10502724
0.76528209 -0.21753059 -0.10429061
0.77212095 -0.21258599 -0.10493358
0.7747882 -0.20701727 -0.10555641
0.78295118 -0.20242165 -0.10561548
0.7852276 -0.19898573 -0.10258862
0.77397567 -0.24191248 -0.096605793
0.76717669 -0.23400073 -0.094267666
0.77109426 -0.23879193 -0.095476978
0.76719099 -0.22480179 -0.095000617
0.77013469 -0.22054154 -0.090675414
0.76670241 -0.21592747 -0.094993144
0.7731452 -0.21430455 -0.094719604
0.76803529 -0.20858987 -0.092490122
0.77577871 -0.20653552 -0.094842434
0.78233528 -0.20137222 -0.094725437
0.7864511 -0.19867195 -0.095157906
0.77596658 -0.24312556 -0.084959291
0.76842928 -0.23432857 -0.08512751
0.77048093 -0.23660432 -0.08264786
0.76768512 -0.22530155 -0.085373491
0.77068669 -0.22405142 -0.083000317
0.7687977 -0.21663164 -0.08570078
0.77324367 -0.21449102 -0.085368581
0.77574593 -0.2071193 -0.086190522
0.78349513 -0.20329636 -0.084126949
0.78583449 -0.19909289 -0.086635448
0.76970518 -0.2404359 -0.078606352
0.77522856 -0.24271604 -0.074980356
0.78087002 -0.2455049 -0.073664069
0.76864517 -0.23373476 -0.075357437
0.77098924 -0.23608205 -0.075257532
0.76700854 -0.22508886 -0.075145312
0.77096426 -0.22493793 -0.075297967
0.76733667 -0.21712142 -0.074877687
0.77392256 -0.2137865 -0.074546732
0.78031921 -0.21001101 -0.073373795
0.77681911 -0.20903489 -0.075271666
0.78529519 -0.20651816 -0.075545594
0.7935887 -0.20418876 -0.074809775
0.80004275 -0.20554727 -0.074162453
0.77746177 -0.24183342 -0.065286055
0.78134578 -0.24442157 -0.066955656
0.76854873 -0.23332566 -0.065272637
0.77225661 -0.23633604 -0.0651972
0.76784551 -0.22522809 -0.065110296
0.77159327 -0.22474262 -0.064555094
0.76821536 -0.2162886 -0.06409657
0.77470261 -0.21458758 -0.065056063
0.77893806 -0.20882486 -0.063928664
0.78507251 -0.20691685 -0.064940393
0.79366553 -0.20463334 -0.064516857
0.77794182 -0.24201979 -0.055594109
0.78133804 -0.2442084 -0.053541854
0.76882923 -0.23329875 -0.055626046
0.77186763 -0.23596385 -0.054775726
0.7690174 -0.22477503 -0.054646716
0.77152765 -0.22532439 -0.055051815
0.76895964 -0.21858189 -0.05578196
0.77363133 -0.21440494 -0.055171859
0.7762568 -0.20902203 -0.054553479
0.78416789 -0.20679669 -0.055310309
0.79436547 -0.20458044 -0.054715224
0.77806598 -0.24102201 -0.045662843
0.78406894 -0.24415086 -0.044417851
0.76932263 -0.23249127 -0.048668634
0.77330989 -0.23493613 -0.044684142
0.76943845 -0.2225664 -0.046290386
0.77123225 -0.2252934 -0.04481519
0.76920485 -0.21928647 -0.0455341
0.77468693 -0.2147115 -0.045237157
0.77849597 -0.20837696 -0.045783143
0.78468686 -0.20561272 -0.044722941
0.7937786 -0.20322633 -0.045458145
0.79518843 -0.19892068 -0.043246049
0.77866822 -0.24082942 -0.035348963
0.7837097 -0.24219035 -0.035729505
0.7745294 -0.23467979 -0.035046004
0.78206277 -0.23999998 -0.03725028
0.76935101 -0.22201703 -0.035340719
0.77189404 -0.22532287 -0.034854695
0.76862305 -0.21801504 -0.0364329
0.77459764 -0.2142337 -0.034736514
0.78073967 -0.21104304 -0.031775307
0.77793503 -0.20865163 -0.03435294
0.78437775 -0.20660852 -0.035293143
0.79377621 -0.20383559 -0.034732174
0.77852476 -0.24033765 -0.026710888
0.78394276 -0.24227627 -0.026587727
0.77520704 -0.23468812 -0.025015032
0.78039563 -0.23953192 -0.020395488
0.77281964 -0.22490986 -0.025057126
0.76948059 -0.21897802 -0.025115615
0.77437466 -0.21583174 -0.024603108
0.78067482 -0.21155857 -0.021592174
0.77949035 -0.20903623 -0.027353104
0.78447431 -0.20657581 -0.025019335
0.79532868 -0.20541042 -0.025142021
0.80252188 -0.20419185 -0.025069607
0.78420776 -0.24171282 -0.01497415
0.77549577 -0.23465279 -0.01497387
0.78061479 -0.23969048 -0.016156871
0.77326256 -0.22521967 -0.014808803
0.77678204 -0.21480571 -0.015758742
0.78099674 -0.21185289 -0.015874956
0.77819455 -0.20843831 -0.012180339
0.78501481 -0.20806138 -0.014817918
0.79456019 -0.2053991 -0.014957741
0.80346572 -0.20528641 -0.015018752
0.78518051 -0.24175973 -0.0051942626
0.77573311 -0.23373844 -0.0051803882
0.78165764 -0.23827867 -0.0031323363
0.77460396 -0.22479314 -0.0048409924
0.7768752 -0.2162461 -0.0044849319
0.78094274 -0.21139784 -0.0050918288
0.77877504 -0.20849586 -0.0057212948
0.78549117 -0.20858806 -0.0057553211
0.79476923 -0.20538908 -0.0048003322
0.79824495 -0.19977954 -0.0051123649
0.78657693 -0.24103586 0.0015292234
0.77714115 -0.23163304 0.0025391711
0.78399807 -0.23578402 0.0035820827
0.79208928 -0.23270178 0.008995939
0.77678955 -0.22508365 0.0024283519
0.78437799 -0.2250855 0.0067289448
0.79160523 -0.22421522 0.0085181352
0.77838844 -0.21537952 0.0022887462
0.78410435 -0.21425469 0.0048193526
0.79423237 -0.21369426 0.0073856022
0.80144805 -0.21184477 0.0060844049
0.77842665 -0.20928288 0.0025712997
0.7860837 -0.20858724 0.0019703589
0.79619825 -0.20764849 0.0027838589
0.80011034 -0.20990139 0.0065499991
0.79355097 -0.23260364 0.011236044
0.79290599 -0.22822015 0.010172879
0.79539955 -0.21394831 0.010093659
