# .PCD v0.7 - Point Cloud Data file format
VERSION 0.7
FIELDS x y z
SIZE 4 4 4
TYPE F F F
COUNT 1 1 1
WIDTH 589
HEIGHT 1
VIEWPOINT 0 0 0 1 0 0 0
POINTS 589
DATA ascii
0.91823763 0.36879331 -0.11334555
0.92222083 0.36813769 -0.1137851
0.91734385 0.37609121 -0.11359262
0.9140507 0.38124454 -0.11292902
0.91459036 0.40885696 -0.11520042
0.92296112 0.40895641 -0.11195689
0.91516513 0.41504145 -0.1137141
0.92179805 0.41355729 -0.11264639
0.91814631 0.42319846 -0.11110549
0.92078549 0.42116368 -0.11068255
0.92340362 0.43875271 -0.11282578
0.917458 0.44846284 -0.11546963
0.92243278 0.44529542 -0.11268992
0.91615671 0.45422965 -0.113881
0.92111015 0.45178241 -0.11148453
0.91818917 0.50575757 -0.1122692
0.92158413 0.50496137 -0.1131333
0.91897458 0.51095307 -0.11455145
0.9188782 0.36964864 -0.10658338
0.92462158 0.36823708 -0.10472544
0.93044692 0.36714333 -0.10091713
0.91869885 0.37466538 -0.10663377
0.92266214 0.37353873 -0.10282928
0.93714917 0.37153327 -0.10571066
0.94080442 0.37218636 -0.10705554
0.91736603 0.38222912 -0.10757091
0.92234755 0.38504145 -0.1020698
0.91950023 0.39683148 -0.10569611
0.92167073 0.39508551 -0.10220212
0.9198643 0.40487912 -0.10214725
0.92141235 0.40601099 -0.1051024
0.91796649 0.41820812 -0.10677274
0.92227554 0.41591093 -0.10519248
0.91901588 0.42513028 -0.10901439
0.92205507 0.42537758 -0.10361841
0.92236 0.43468034 -0.10450831
0.91900837 0.4449178 -0.10579622
0.92336875 0.44543976 -0.10479999
0.91872549 0.4564881 -0.10770457
0.92228031 0.45457369 -0.10323266
0.91774803 0.4641414 -0.10491446
0.92195362 0.46495834 -0.10174924
0.92344058 0.47454345 -0.10216007
0.91886967 0.483208 -0.10200791
0.92253292 0.48376748 -0.10173527
0.91919053 0.49678528 -0.10530569
0.92229241 0.49556151 -0.10228638
0.91865522 0.50410479 -0.10759077
0.92477137 0.505952 -0.10257274
0.92480958 0.5106923 -0.10333383
0.9270426 0.36830536 -0.094582796
0.93261158 0.36814713 -0.094319411
0.92377728 0.37378192 -0.095344849
0.93733901 0.37059069 -0.090831131
0.92699426 0.38603494 -0.095896341
0.93042046 0.38720238 -0.090640694
0.92646372 0.39597803 -0.096245326
0.93118346 0.39629671 -0.091930375
0.92523873 0.40477878 -0.095509775
0.93137997 0.4040466 -0.091394842
0.92632252 0.41533282 -0.09535905
0.93115008 0.41476959 -0.090984933
0.92534178 0.42478806 -0.094550192
0.93075478 0.42065644 -0.090151399
0.92507374 0.434728 -0.094816022
0.92761678 0.44500059 -0.095879383
0.93090665 0.44749999 -0.090929464
0.9260962 0.45509431 -0.094960041
0.92540413 0.46594471 -0.095392458
0.92698789 0.47487503 -0.095334761
0.93157816 0.476338 -0.091335796
0.92600125 0.48392829 -0.096056074
0.93118888 0.48449916 -0.091453463
0.92693669 0.49415043 -0.096847653
0.93258363 0.49624559 -0.094814248
0.92795169 0.50354981 -0.098630644
0.9320299 0.503887 -0.095163271
0.92789924 0.51116079 -0.098908842
0.9324764 0.51268619 -0.097063646
0.92832589 0.36875808 -0.087917618
0.93313247 0.36892462 -0.085205488
0.94065183 0.36894399 -0.085321277
0.92600912 0.37466714 -0.085071698
0.93477368 0.37183681 -0.084269457
0.94094914 0.37189981 -0.083067872
0.92869818 0.38468653 -0.085528351
0.93086457 0.38805175 -0.083964854
0.93180513 0.39533317 -0.084700048
0.93191671 0.40484726 -0.084646478
0.93281227 0.41519597 -0.085203618
0.92864525 0.42800254 -0.086999133
0.93180323 0.42373788 -0.084496163
0.92687345 0.43271968 -0.085581869
0.93166757 0.43445939 -0.084388554
0.9289782 0.44139951 -0.087937683
0.93253249 0.44590202 -0.084414609
0.92873728 0.45627025 -0.086994581
0.93248481 0.45452523 -0.084246546
0.92859977 0.46257028 -0.084703751
0.93120819 0.46328807 -0.084690072
0.93365949 0.47571191 -0.084706239
0.92931384 0.48742747 -0.086253986
0.9323104 0.48495734 -0.085087605
0.92828017 0.49106985 -0.087065056
0.93126678 0.49377972 -0.083983302
0.9300707 0.50024116 -0.080762863
0.93639374 0.3690092 -0.075773232
0.92862469 0.37531984 -0.075465918
0.93305069 0.37166777 -0.074720554
0.9416973 0.37202573 -0.07622847
0.92879522 0.38131005 -0.077208556
0.9317205 0.3860676 -0.074526817
0.93365932 0.39511982 -0.074854076
0.93278873 0.40526512 -0.074802801
0.93195719 0.41458818 -0.074904688
0.92844486 0.42785275 -0.076155022
0.93273485 0.42554903 -0.07506568
0.92901546 0.43218291 -0.078589477
0.93278664 0.43504009 -0.074099533
0.93501896 0.44517577 -0.074364692
0.9400273 0.44334561 -0.070435882
0.92944878 0.45793641 -0.072262608
0.93344671 0.45459017 -0.075033784
0.92911088 0.46127015 -0.077493638
0.93154067 0.46418992 -0.07402619
0.93342793 0.47510684 -0.075237431
0.93269765 0.48500627 -0.07562428
0.92897433 0.49918461 -0.076527983
0.93278265 0.49524996 -0.075267792
0.92954737 0.50068682 -0.073987976
0.93159008 0.50079226 -0.076140717
0.93305087 0.36871463 -0.062777303
0.94428951 0.36837682 -0.063374355
0.92888272 0.37454787 -0.066326991
0.93362409 0.37170649 -0.065837331
0.94200885 0.37056461 -0.064402804
0.95089597 0.37137908 -0.061598867
0.93284506 0.38473791 -0.064421847
0.93430668 0.39509425 -0.064980865
0.93495369 0.40449941 -0.065740004
0.93507385 0.41508248 -0.065307736
0.94093555 0.4199959 -0.064324349
0.93627864 0.42603064 -0.064887725
0.93576545 0.43460447 -0.064918384
0.93558931 0.44589853 -0.06445995
0.92914563 0.45068789 -0.066869825
0.93349522 0.45104754 -0.067924157
0.92945522 0.46847475 -0.062890738
0.93205231 0.46496749 -0.069682106
0.92972451 0.47581363 -0.068274587
0.9324832 0.47378385 -0.066452831
0.93321484 0.48658079 -0.069653049
0.92984134 0.49649215 -0.069613755
0.93374485 0.49595159 -0.06811206
0.93739629 0.50197238 -0.065054595
0.9432165 0.50552231 -0.060873538
0.92968142 0.36849582 -0.058938116
0.93302357 0.36870065 -0.055462617
0.94191933 0.36996925 -0.059301853
0.93164498 0.37511 -0.055115804
0.94687426 0.37124664 -0.058710691
0.93471384 0.38633448 -0.05494716
0.93621117 0.39569956 -0.055087335
0.93731391 0.40412718 -0.055451382
0.94007218 0.40592736 -0.053699613
0.93845975 0.41576287 -0.057949536
0.94021976 0.41593242 -0.056971818
0.93762249 0.42508882 -0.057354715
0.94195521 0.42679548 -0.054270048
0.93730867 0.43583995 -0.05571609
0.94130862 0.43242913 -0.052498274
0.93691885 0.44430763 -0.055257127
0.94087577 0.44675282 -0.05128707
0.93907881 0.45330238 -0.052785307
0.94157654 0.45482439 -0.051639028
0.92899275 0.46827048 -0.059058577
0.93638068 0.46900693 -0.054325927
0.94188821 0.46484295 -0.05257269
0.93715364 0.47097692 -0.054824501
0.9425168 0.47120035 -0.054798678
0.93916869 0.49866599 -0.055533241
0.94162291 0.49731609 -0.051566776
0.93828547 0.50024223 -0.055992469
0.94160342 0.50052118 -0.05291748
0.93607628 0.36927155 -0.042795863
0.93571013 0.37587088 -0.045830648
0.94575 0.3716813 -0.041526429
0.93833679 0.38499707 -0.047678649
0.9415983 0.38627446 -0.043420549
0.93882388 0.39142349 -0.049258456
0.94275087 0.39490801 -0.044756524
0.9446668 0.40269548 -0.042224225
0.94306594 0.42785358 -0.045382559
0.94240916 0.4355312 -0.046852052
0.94197047 0.44508392 -0.044855036
0.94363892 0.45509467 -0.044921111
0.94454658 0.46506357 -0.045067452
0.93819821 0.47213554 -0.048719734
0.94221187 0.47234389 -0.045861952
0.94280577 0.48848176 -0.044454969
0.94420892 0.49580157 -0.044263523
0.94229043 0.5000385 -0.047744542
0.94681996 0.36854124 -0.030308098
0.93867207 0.37405616 -0.038070899
0.94445956 0.37403455 -0.03505246
0.95086044 0.37180328 -0.036362078
0.94352865 0.3853828 -0.034871519
0.94574612 0.39446351 -0.035107028
0.93863475 0.4076325 -0.035262574
0.94550228 0.40489554 -0.034748655
0.9394989 0.41364965 -0.035581321
0.94226432 0.4147886 -0.032603402
0.94387192 0.42500043 -0.032505803
0.94525439 0.43585712 -0.034382086
0.94579381 0.44538 -0.035120707
0.95045245 0.44136772 -0.030303523
0.9466365 0.45427883 -0.03559671
0.95019519 0.45944226 -0.034742326
0.94735205 0.46489754 -0.035881653
0.95036811 0.4624542 -0.031703882
0.94481516 0.47028852 -0.036433809
0.94644135 0.48799863 -0.034738865
0.94699365 0.49410865 -0.035924632
0.94755554 0.36881727 -0.026644543
0.95189804 0.36946374 -0.022541679
0.94451207 0.37458467 -0.024455678
0.95468277 0.371777 -0.02086046
0.94469291 0.3847439 -0.024635658
0.94648391 0.39485162 -0.02527771
0.94636047 0.40527567 -0.025370512
0.94678086 0.41443205 -0.025345687
0.95036209 0.41492933 -0.021556016
0.94719797 0.4251892 -0.025107391
0.94872665 0.43600163 -0.025298323
0.9504239 0.43641579 -0.022293504
0.94899291 0.44535947 -0.0265889
0.95050102 0.44651905 -0.023410294
0.94773024 0.45538527 -0.024753805
0.9503063 0.45160791 -0.021517944
0.9463641 0.46403033 -0.022939369
0.94817489 0.47719413 -0.022731906
0.94833946 0.48555535 -0.024290409
0.94906771 0.49070191 -0.029304415
0.94655722 0.37599733 -0.015411999
0.954247 0.37340364 -0.015690073
0.94612151 0.38454491 -0.014733227
0.94819385 0.3939184 -0.015634399
0.95074987 0.39632028 -0.011973718
0.94930053 0.40185598 -0.017232664
0.95103848 0.40461141 -0.014472459
0.94858861 0.41729558 -0.018200085
0.95155478 0.41283387 -0.016988134
0.9481321 0.42237538 -0.018390264
0.94931984 0.43726715 -0.018874314
0.95022833 0.43697324 -0.017223269
0.94960082 0.44167066 -0.01935941
0.95241755 0.4459255 -0.015206628
0.94809622 0.45802009 -0.017301515
0.95186269 0.45421815 -0.014797803
0.94812077 0.46477637 -0.015399273
0.95115739 0.46213388 -0.011448111
0.94900656 0.47379613 -0.017848371
0.95114779 0.47642741 -0.014537666
0.94917989 0.48533863 -0.017208092
0.95129979 0.4850288 -0.013097032
0.95805615 0.36942029 -0.0058795214
0.94819778 0.37762782 -0.0068720798
0.95402813 0.37517044 -0.0048250086
0.96074122 0.37449753 -0.00070680678
0.94840735 0.38347855 -0.0057824831
0.95167112 0.38524804 -0.0023532822
0.94953197 0.39084849 -0.0077835084
0.95324194 0.39591011 -0.004207728
0.95327729 0.40503064 -0.0056163901
0.95655686 0.41446733 -0.0034429193
0.95752025 0.42374986 -0.0023981798
0.95435733 0.43478343 -0.0022096753
0.95422405 0.44537252 -0.0055108625
0.94971216 0.4580487 -0.0045813024
0.95449215 0.45567161 -0.0048661456
0.94937104 0.4650403 -0.0069867447
0.95125782 0.4652876 -0.0046573314
0.9490366 0.47123957 -0.0067570331
0.95182341 0.47381076 -0.0033459798
0.95425498 0.48523152 -0.0058793719
0.95583016 0.49189481 -0.0065322779
0.95826364 0.37869495 0.0015462656
0.96228898 0.37501812 0.0046432293
0.95487821 0.38501361 0.0043199286
0.96167928 0.3815909 0.0056962073
0.94959968 0.39553389 0.0069920658
0.95241153 0.39350724 0.0057078358
0.95354986 0.4049468 0.0057571274
0.95462877 0.41489196 0.0058608805
0.9601509 0.41130513 0.00081442297
0.95644796 0.42508444 0.0057323291
0.95666337 0.43489289 0.0045271353
0.95675671 0.44460088 0.0057832669
0.95689535 0.45538571 0.0040379339
0.96024531 0.45637 0.008615762
0.95522654 0.46448192 0.0048033283
0.95486456 0.47422612 0.0044636359
0.95651209 0.48449171 0.0047145309
0.96285713 0.37369978 0.010518387
0.95467055 0.38701749 0.010600517
0.95642644 0.39593676 0.013835198
0.96036011 0.39705396 0.018521309
0.957057 0.40501425 0.014720009
0.96018767 0.40763849 0.017583825
0.95807141 0.41533482 0.014891197
0.96046525 0.41440165 0.019186698
0.95825928 0.42463928 0.014907661
0.96093369 0.42691231 0.017983457
0.95787412 0.43549395 0.015721325
0.96137762 0.43519858 0.018068463
0.95614249 0.4443914 0.01472361
0.96037793 0.44037002 0.019621581
0.95678359 0.45529157 0.016112752
0.95796716 0.46509063 0.014660614
0.96014655 0.46085775 0.012393162
0.95636547 0.47464672 0.014658223
0.95582128 0.48115683 0.015260133
0.96876168 0.37224168 0.028299695
0.97049743 0.37075704 0.028972112
0.95895511 0.39506066 0.024501532
0.96128124 0.39513186 0.027192647
0.95880461 0.40389472 0.024472021
0.96091604 0.40376264 0.028142203
0.95866811 0.41293442 0.022412961
0.96227932 0.41522631 0.02519121
0.95959783 0.42260259 0.022150159
0.96289635 0.42452475 0.025213709
0.9582243 0.43682903 0.023580657
0.96249968 0.43334562 0.026160933
0.95756 0.44507372 0.023380095
0.9612987 0.44534752 0.027849801
0.95835948 0.45630485 0.02438103
0.96067333 0.4550955 0.028332809
0.95821732 0.46429712 0.022919558
0.96187466 0.46570173 0.027585331
0.95921111 0.47460791 0.021387922
0.9628455 0.47531879 0.026661394
0.95836085 0.48064852 0.021222383
0.96399492 0.48155341 0.025571764
0.96688038 0.36928523 0.038753673
0.97411186 0.36859834 0.035018191
0.95676696 0.37010956 0.039395332
0.96833688 0.37108997 0.034338225
0.97326636 0.37158638 0.033722419
0.95970905 0.39805609 0.030508317
0.9642818 0.39618394 0.034465186
0.95931745 0.40024489 0.031627931
0.96424729 0.40458992 0.035237394
0.96565706 0.41507593 0.035343044
0.96509409 0.42549199 0.034816757
0.9634757 0.43396115 0.034267806
0.95937204 0.44670451 0.030610293
0.96489441 0.44473654 0.03517862
0.96234947 0.45395789 0.034871969
0.96386409 0.46615171 0.03523235
0.9650616 0.47549066 0.034430508
0.96441364 0.48034057 0.033687733
0.95787323 0.36937606 0.045152437
0.96338153 0.36913404 0.044585995
0.95707637 0.37441015 0.045960203
0.96395612 0.37120479 0.046078537
0.95852828 0.38208041 0.042927392
0.96231842 0.38713509 0.046930023
0.96658891 0.39675808 0.045141138
0.96701831 0.40440521 0.044672526
0.96796542 0.41548741 0.04451631
0.96597099 0.42465526 0.045143191
0.96600473 0.43495247 0.046121333
0.96860856 0.44466117 0.042713609
0.97007203 0.44652849 0.045492843
0.96732897 0.45506403 0.044591919
0.97021973 0.45330191 0.049325049
0.96503919 0.46458933 0.044986531
0.9670375 0.47439584 0.045276064
0.96265376 0.36975369 0.052893482
0.9733448 0.36847788 0.057598598
0.95892501 0.37505463 0.052692067
0.96416676 0.37334099 0.056263592
0.97161973 0.37142536 0.05658542
0.96408844 0.38611063 0.055299159
0.96634477 0.39530769 0.05506739
0.96743095 0.40520334 0.055524781
0.96774817 0.41530403 0.054640085
0.96749157 0.42475966 0.055209707
0.96660846 0.43503401 0.054316092
0.96519196 0.44377199 0.055749513
0.96738482 0.45529038 0.056166667
0.97112536 0.45473558 0.052504182
0.96820563 0.46437776 0.055708785
0.97176921 0.46850595 0.052788746
0.9690094 0.47435045 0.052170526
0.97087604 0.47303653 0.053269889
0.97262412 0.36831418 0.062269039
0.96624678 0.37653732 0.064101115
0.97334373 0.374147 0.066093646
0.96669364 0.38583052 0.06379889
0.9708066 0.38888246 0.06815967
0.96827322 0.39421758 0.065263607
0.97038645 0.3908124 0.068989143
0.96930134 0.40486851 0.061732974
0.97213173 0.40636131 0.06631434
0.96788377 0.41557938 0.063827887
0.97234231 0.41508016 0.06737382
0.96764213 0.42482692 0.065216564
0.96887821 0.43501717 0.061682452
0.97087014 0.43614894 0.065549791
0.96845955 0.44582173 0.063081652
0.97070593 0.44333631 0.066433601
0.96924782 0.45384431 0.062365603
0.97095931 0.45482484 0.065591596
0.96637988 0.46262798 0.061369225
0.97204614 0.46414137 0.063863076
0.97200894 0.47376335 0.061286747
0.9685213 0.37851709 0.07444939
0.97508329 0.37584198 0.074533798
0.98049814 0.37396982 0.07656087
0.96888512 0.38181242 0.075518198
0.97218364 0.38581118 0.07310959
0.9734264 0.39481962 0.074912034
0.97532982 0.40573049 0.07534688
0.96832621 0.41875643 0.070766598
0.97428632 0.4159171 0.074939117
0.96844143 0.42536393 0.073136114
0.97220218 0.42444682 0.076047771
0.97437727 0.43762922 0.073248319
0.96944016 0.44497693 0.07128197
0.97393274 0.44455975 0.075380027
0.96960229 0.45111653 0.073513217
0.97303259 0.45233893 0.07606405
0.98127609 0.4585228 0.079724073
0.97957087 0.46156585 0.078837514
0.96911407 0.37776491 0.082153201
0.97364044 0.37432036 0.08485163
0.96963942 0.38201007 0.08204174
0.97197807 0.38386676 0.086250119
0.97586769 0.39540091 0.084600002
0.97768384 0.40597516 0.0848995
0.975115 0.41432241 0.084857292
0.97528219 0.42565045 0.084651142
0.97584075 0.43522817 0.085468888
0.98047179 0.43787438 0.089617372
0.97641659 0.4431622 0.086134337
0.98267293 0.46417961 0.08768709
0.98139399 0.47063273 0.085739061
0.97340822 0.37734446 0.090817511
0.97442859 0.38525805 0.09468358
0.97578835 0.39441484 0.094985604
0.97714245 0.4049851 0.094326384
0.98085791 0.4061293 0.099018812
0.97721726 0.4146702 0.094143599
0.98138046 0.41590279 0.098615751
0.97841144 0.42359081 0.093988404
0.98143291 0.42689654 0.097683735
0.97802824 0.43524644 0.092690334
0.9819296 0.43505186 0.095332034
0.97508222 0.44397387 0.09206149
0.98346782 0.44530675 0.096477829
0.97874027 0.45138264 0.092981488
0.98202324 0.45557097 0.096916862
0.97987819 0.46040058 0.098397493
0.98307765 0.46361619 0.093493424
0.98903936 0.3698878 0.10711957
0.9900524 0.36983627 0.1092058
0.97592735 0.37794408 0.10571884
0.98535424 0.37516084 0.10641146
0.99052334 0.37793851 0.10991146
0.97749549 0.38562489 0.1037804
0.98241657 0.38455582 0.10795174
0.97870821 0.39275071 0.10356876
0.98076522 0.39520431 0.10664577
0.97952867 0.40239275 0.101007
0.98375154 0.40436664 0.10631651
0.97959423 0.41064447 0.10099203
0.98334515 0.41424546 0.10467264
0.9786728 0.42812395 0.10771775
0.98218942 0.42421997 0.1053293
0.97895139 0.43545538 0.10820663
0.98249269 0.43539491 0.10482875
0.97887838 0.44374642 0.10893257
0.98352528 0.44547555 0.10336019
0.9796648 0.45776308 0.10308674
0.98231363 0.45499122 0.10439434
0.99072772 0.36980188 0.11059663
0.98801619 0.37684387 0.11440371
0.99120802 0.37400857 0.11602306
0.97975117 0.38409042 0.11015758
0.98479831 0.385205 0.11510299
0.98530906 0.39561889 0.11476226
0.98593074 0.40445179 0.11484286
0.98430485 0.41473264 0.11534803
0.97967291 0.4224059 0.11284878
0.98193097 0.42262423 0.11492189
0.97935563 0.43198177 0.11071043
0.98204195 0.43812951 0.113096
0.97913694 0.44657534 0.11401483
0.98293531 0.44345999 0.11596957
0.97913301 0.45200986 0.11181943
0.98310006 0.45294747 0.11435185
0.98547322 0.37744379 0.12588239
0.99167383 0.37409458 0.1248261
0.97984004 0.38083136 0.12989178
0.98464984 0.38516822 0.12371866
0.98538035 0.3950595 0.12426472
0.98782808 0.40581149 0.12356964
0.9907546 0.40933949 0.12830865
0.98646283 0.41515395 0.12491416
0.99090832 0.41380686 0.12927449
0.98511732 0.42389581 0.12515061
0.986651 0.43207633 0.12525779
0.99166805 0.43573198 0.12923166
0.98471606 0.44882417 0.12074067
0.99136478 0.44244099 0.12906542
0.98383021 0.45080364 0.12063417
0.99356234 0.45179671 0.12953106
0.97848791 0.37581393 0.13630445
0.98466325 0.3761408 0.1340346
0.99329948 0.37688524 0.13401876
0.97828805 0.38119802 0.13443153
0.99449146 0.38051301 0.1380035
0.9841969 0.39237535 0.13933846
0.99251187 0.40725255 0.13638742
0.98858166 0.41744858 0.13293098
0.99256098 0.41470692 0.13584985
0.98834306 0.42368427 0.13486312
0.99097347 0.42601055 0.13720106
0.98949897 0.43022603 0.13922644
0.99260199 0.43668789 0.13456017
0.98974425 0.4455637 0.13216805
0.99173301 0.44441915 0.13533732
0.99237931 0.4511728 0.13770774
0.97998655 0.37582827 0.14071822
0.98451924 0.37425259 0.14507826
0.99451464 0.37433746 0.1445106
0.98544347 0.38465366 0.14581826
0.98707372 0.39322251 0.14348552
0.99156475 0.39631316 0.14836788
0.99237889 0.40445393 0.14502117
0.99338758 0.41586122 0.1454217
0.98909819 0.42559755 0.14503424
0.99136418 0.4243021 0.14481796
0.98899668 0.43307561 0.14901137
0.99193382 0.43505684 0.14431849
0.98950517 0.44026852 0.14815727
0.99348772 0.44457516 0.14498661
0.99411976 0.4508605 0.14234014
0.98652357 0.37528354 0.15149891
0.9933182 0.37525544 0.15305732
0.98815984 0.3853071 0.15137626
0.99436694 0.3964611 0.15303679
0.99668103 0.40546063 0.15531616
0.99364376 0.41445723 0.15464289
0.99521422 0.42530072 0.15545234
0.98938841 0.4317573 0.15032747
0.99453765 0.43522704 0.15496443
0.9948175 0.4440771 0.15523915
0.99830979 0.37855691 0.1654968
0.99656934 0.38428944 0.16610773
0.99695802 0.39396006 0.16697949
0.99887538 0.4047569 0.16498064
0.99785781 0.41376585 0.16502078
0.99887991 0.42484835 0.16416807
0.99811608 0.43461782 0.16268691
0.99804336 0.44247282 0.16060385
0.99861759 0.37821028 0.17207061
0.99615282 0.38300997 0.17254831
0.99805009 0.39514804 0.17313817
0.99866116 0.4044798 0.17360264
0.99886084 0.4154892 0.17426874
0.9988144 0.42256793 0.17505929
0.99837846 0.37899736 0.18573113
0.99799174 0.38351044 0.1863409
0.99964982 0.39564466 0.18349126
0.99932551 0.40367186 0.18495014
0.99894458 0.41921902 0.18361691
0.99893486 0.42535293 0.18364084
0.99959517 0.4322741 0.18580364
0.99936342 0.38546371 0.19300191
0.99949616 0.39227241 0.19347203
0.99962533 0.40648001 0.19680184
0.99882269 0.41441619 0.1953301
0.99911141 0.42475054 0.1954661
0.99908489 0.43117428 0.19265839
0.99956912 0.39931375 0.20029384
0.99949658 0.42533374 0.20080572
