# .PCD v0.7 - Point Cloud Data file format
VERSION 0.7
FIELDS x y z rgb
SIZE 4 4 4 4
TYPE F F F F
COUNT 1 1 1 1
WIDTH 991
HEIGHT 1
VIEWPOINT 0 0 0 1 0 0 0
POINTS 991
DATA ascii
0.92702878 0.43721095 -0.092435665 3.9687505e-39
0.92920244 0.44351879 -0.093064189 3.8765591e-39
0.92881376 0.44702017 -0.093266532 3.8765549e-39
0.93090665 0.44749999 -0.090929464 3.601054e-39
0.92804301 0.45265493 -0.09237875 4.0598643e-39
0.92457312 0.45942628 -0.093668312 3.4155711e-39
0.92596018 0.45765293 -0.092323855 3.5081255e-39
0.92651737 0.46377712 -0.093193166 3.4155725e-39
0.92848188 0.46829137 -0.092530556 3.3233769e-39
0.92875767 0.47231522 -0.092651628 3.2311785e-39
0.93317163 0.47370476 -0.090320483 2.4010703e-39
0.92942965 0.47848901 -0.093947589 3.5981533e-39
0.93078148 0.47765464 -0.091843456 3.3222839e-39
0.92825311 0.48237711 -0.092971191 3.1375395e-39
0.93184531 0.48145372 -0.091841258 3.0457012e-39
0.92888045 0.48801267 -0.09412688 3.137894e-39
0.93053246 0.48754457 -0.091065675 2.8609428e-39
0.92954326 0.4910512 -0.09003371 2.3077676e-39
0.93264866 0.49319184 -0.094064377 3.1371752e-39
0.93396235 0.49857295 -0.094001517 3.0446278e-39
0.93257898 0.50199956 -0.093870297 3.1361018e-39
0.9328407 0.50658357 -0.094235629 3.4130516e-39
0.92822564 0.36869812 -0.088419519 5.2580334e-39
0.93168032 0.36883578 -0.087343238 1.9361068e-39
0.93540305 0.36983776 -0.088093668 3.6734198e-40
0.94065183 0.36894399 -0.085321277 0
0.92440009 0.37367755 -0.087893084 4.8914243e-39
0.92670357 0.37232944 -0.087290034 4.4290154e-39
0.93781596 0.37157771 -0.087454699 3.6842939e-40
0.94046748 0.37195849 -0.086356923 1.4012985e-45
0.92403793 0.3766627 -0.087874696 5.5360706e-39
0.92865062 0.38412198 -0.08712709 2.4939778e-39
0.92990834 0.38632393 -0.085018188 7.6651026e-43
0.93097365 0.38865244 -0.088188827 2.3095865e-39
0.93074524 0.39225957 -0.087461166 1.9390089e-39
0.9319334 0.39815223 -0.087208249 8.3122643e-40
0.93175411 0.40244552 -0.087388657 1.19966e-39
0.93215507 0.40771288 -0.087477714 9.2414373e-40
0.93265808 0.41313258 -0.087839976 5.5607447e-40
0.93247497 0.41777873 -0.087424301 2.8020784e-40
0.92973936 0.42370301 -0.089583069 5.532126e-39
0.93152875 0.42211452 -0.087227523 5.5572274e-40
0.92854345 0.42810544 -0.087737419 2.1230442e-39
0.93040198 0.42591554 -0.086223796 3.9376487e-43
0.92658848 0.43224496 -0.087382391 2.4014234e-39
0.93179339 0.43107104 -0.086197749 9.4383057e-41
0.9270696 0.4370704 -0.087071702 1.847535e-39
0.93056256 0.43981338 -0.086011797 2.7589044e-40
0.9289782 0.44139951 -0.087937683 1.7553393e-39
0.93277645 0.44321108 -0.085815713 4.5992157e-40
0.93158346 0.44775611 -0.087140359 4.6208377e-40
0.9294436 0.45345894 -0.087470189 1.3858337e-39
0.93104786 0.4516972 -0.088151656 1.0159764e-39
0.92814142 0.457515 -0.087855689 2.2163133e-39
0.93125921 0.45860106 -0.087809831 2.5223372e-44
0.9283765 0.46339902 -0.088120125 2.1230442e-39
0.93101853 0.46148682 -0.08824718 8.3158236e-40
0.93053013 0.46727324 -0.089123815 2.5847525e-39
0.93426394 0.47364914 -0.088071056 4.0637655e-44
0.93280953 0.47693887 -0.088210635 7.3975106e-40
0.92979705 0.48382986 -0.088431656 1.4805405e-39
0.93281221 0.4823198 -0.087915115 2.7770372e-40
0.92823952 0.48850298 -0.087559879 1.2046739e-39
0.93200141 0.48829278 -0.087309808 3.7024688e-40
0.92828017 0.49106985 -0.087065056 8.3193829e-40
0.93131757 0.49147296 -0.085924923 3.2229865e-44
0.92892802 0.3691178 -0.084906191 4.6457528e-40
0.93270469 0.36902303 -0.082028709 3.7202933e-40
0.93940562 0.36816084 -0.081158966 0
0.92483401 0.37359869 -0.084556401 2.4932603e-39
0.92764115 0.37261349 -0.082640305 5.5463673e-40
0.93149173 0.37161246 -0.082559429 1.0156079e-39
0.93954968 0.37294182 -0.084090732 2.7696104e-40
0.94115573 0.37187469 -0.081658289 4.2038954e-45
0.92433941 0.37508273 -0.084279537 2.6747901e-39
0.9262898 0.37734857 -0.082041383 5.5465355e-40
0.92687231 0.381042 -0.0836308 1.8587664e-40
0.92940879 0.38782263 -0.084738582 9.3325076e-41
0.93080997 0.38775137 -0.081852868 4.6209779e-40
0.93237162 0.39212885 -0.082159542 4.6352851e-40
0.93206573 0.39780381 -0.082750887 4.6244811e-40
0.93143457 0.40173125 -0.08183828 3.7096995e-40
0.93226218 0.40743685 -0.081887022 4.6280544e-40
0.93275118 0.41248283 -0.082236759 3.7025248e-40
0.93332148 0.41727817 -0.082406342 1.8657729e-40
0.93276137 0.42154163 -0.082292609 9.4022923e-41
0.92865855 0.42958611 -0.081646591 9.4734783e-41
0.93167412 0.42676595 -0.082791224 9.4738987e-41
0.9271881 0.43190235 -0.082684591 1.8441368e-40
0.93134677 0.43160197 -0.082925886 9.4734783e-41
0.93235236 0.4397223 -0.082325801 2.1804204e-42
0.93184197 0.44125381 -0.082040101 1.8202867e-42
0.93334275 0.44638982 -0.082355224 9.3657184e-41
0.92905444 0.45296609 -0.084986538 1.9618179e-44
0.93269485 0.4531278 -0.083415084 1.8478643e-40
0.93579435 0.45280287 -0.083414018 1.8328984e-42
0.92925155 0.45918828 -0.084033489 7.3988559e-43
0.93203652 0.45737022 -0.082279965 1.8188854e-42
0.93517697 0.45536494 -0.082438111 5.521172e-40
0.92873919 0.46205232 -0.082568511 7.4268819e-43
0.93172407 0.46033594 -0.081550613 1.460153e-42
0.9313159 0.46694943 -0.080276996 1.460153e-42
0.93331099 0.47280809 -0.083343081 1.098618e-42
0.93521845 0.4717952 -0.08022812 1.460153e-42
0.93338758 0.47794452 -0.082895331 1.098618e-42
0.93561912 0.47817412 -0.081200778 1.1000193e-42
0.93297654 0.48257434 -0.082854956 7.3988559e-43
0.92990488 0.48994958 -0.082770407 1.9618179e-44
0.9314751 0.48714739 -0.081954017 1.821688e-44
0.93069303 0.49406493 -0.084937602 2.5223372e-44
0.93147755 0.49709725 -0.08059372 1.821688e-44
0.9300707 0.50024116 -0.080762863 3.7835059e-43
0.93433052 0.36894035 -0.078680426 3.7202933e-40
0.93660784 0.36911416 -0.076226711 1.8511853e-40
0.92838669 0.37469155 -0.078602396 6.4755684e-40
0.93200511 0.37191656 -0.077479124 8.3158516e-40
0.9369005 0.37071186 -0.075438812 4.6242709e-40
0.9422105 0.37256005 -0.078829661 2.8025969e-45
0.92890012 0.37740421 -0.077606693 5.5536261e-40
0.93015623 0.37940967 -0.078168958 7.3975106e-40
0.92852068 0.38151962 -0.078740083 4.6316698e-40
0.93117344 0.38274711 -0.076804698 4.6316838e-40
0.93195212 0.38763326 -0.077060558 4.6316698e-40
0.93318772 0.39271173 -0.077787355 4.6316277e-40
0.93297172 0.39744127 -0.077010266 4.6352151e-40
0.93265831 0.40285268 -0.077020325 3.7132447e-40
0.93345028 0.40810266 -0.078171901 3.7096995e-40
0.93270516 0.41302481 -0.07723929 2.7877572e-40
0.93125379 0.4175801 -0.076872088 2.7912604e-40
0.93214405 0.42293894 -0.078076363 1.8657448e-40
0.92748415 0.42864633 -0.077472329 1.8693041e-40
0.93127131 0.42777216 -0.077758446 9.4380254e-41
0.92901546 0.43218294 -0.078589477 9.4734783e-41
0.93058842 0.43148026 -0.075902872 1.8693041e-40
0.9316299 0.43758714 -0.077015288 9.4734783e-41
0.93309402 0.44216499 -0.07776475 9.4734783e-41
0.93379533 0.44785631 -0.077052802 2.5391528e-42
0.9351061 0.44963741 -0.075205892 9.4028528e-41
0.93388343 0.45349613 -0.07791499 1.460153e-42
0.93505621 0.45132506 -0.078799367 1.8202867e-42
0.9323312 0.45706964 -0.077563092 1.1042232e-42
0.92911088 0.46127015 -0.077493638 1.460153e-42
0.93099439 0.46184218 -0.077177711 7.4689208e-43
0.93157375 0.46716923 -0.075799033 1.460153e-42
0.93400794 0.47309542 -0.078130223 1.460153e-42
0.93390888 0.4782221 -0.077277094 1.1000193e-42
0.93511754 0.47637975 -0.076369315 1.460153e-42
0.93275088 0.48308024 -0.077644169 3.7835059e-43
0.93271303 0.48904106 -0.07766702 3.7835059e-43
0.93131053 0.49217492 -0.077835657 1.821688e-44
0.93559664 0.49227929 -0.076202989 3.7835059e-43
0.92897433 0.49918461 -0.076527983 2.6624671e-44
0.93274325 0.49760893 -0.077475682 1.821688e-44
0.93555403 0.4971064 -0.076992959 1.821688e-44
0.93132335 0.50079185 -0.077637561 1.9618179e-44
0.93781441 0.36876309 -0.071505576 1.821688e-44
0.92860413 0.3734439 -0.072270982 6.4755543e-40
0.93217754 0.37142834 -0.072274975 9.2378499e-40
0.93690407 0.37042937 -0.072440706 8.3049355e-40
0.94067091 0.37095702 -0.071026087 4.2038954e-45
0.92880034 0.37704402 -0.073149309 5.5571854e-40
0.92948151 0.38078612 -0.073379725 5.5536261e-40
0.93028152 0.38326854 -0.072816417 6.4755824e-40
0.93284178 0.3882615 -0.072136931 5.5536121e-40
0.93310916 0.39128572 -0.072628744 5.5571573e-40
0.93388808 0.39746302 -0.072984353 5.5536121e-40
0.93572307 0.39617109 -0.071516491 4.6316838e-40
0.93329281 0.40235424 -0.071971759 4.6316558e-40
0.93219423 0.40814045 -0.073301211 3.7132447e-40
0.93134093 0.41279358 -0.072033897 3.7096714e-40
0.93224281 0.41786367 -0.07329201 2.7912744e-40
0.9331426 0.42182016 -0.072871864 2.7877151e-40
0.93515229 0.42477298 -0.072253793 3.7097275e-40
0.92940563 0.42705917 -0.074837714 9.4025726e-41
0.93357068 0.42784196 -0.072857358 1.8658009e-40
0.93535626 0.42625684 -0.070506871 9.4025726e-41
0.93286151 0.432446 -0.072754867 3.7024267e-40
0.93523818 0.43240815 -0.070279926 2.7877572e-40
0.9336074 0.43788853 -0.073333897 9.4734783e-41
0.93700582 0.43948555 -0.072742224 1.8693041e-40
0.93398726 0.44309545 -0.074227445 9.4734783e-41
0.93742687 0.44428417 -0.072083108 2.8936813e-42
0.9400273 0.44334561 -0.070435882 9.4734783e-41
0.93424821 0.44564795 -0.073073827 9.4378853e-41
0.93671846 0.44814464 -0.071641959 2.5391528e-42
0.93339676 0.45278895 -0.072680257 1.8244906e-42
0.93603051 0.4511008 -0.071961045 2.1804204e-42
0.92944878 0.45793641 -0.072262608 1.1098284e-42
0.93293917 0.45755124 -0.072738968 1.4629556e-42
0.93164521 0.46129227 -0.072140127 1.460153e-42
0.93192482 0.46742067 -0.072165564 1.0958154e-42
0.93286538 0.47077823 -0.071745835 1.0972167e-42
0.93238306 0.47658816 -0.072463952 7.300765e-43
0.93266904 0.48272285 -0.072565153 1.6815582e-44
0.93258363 0.48719388 -0.072099239 3.7835059e-43
0.9327082 0.49224675 -0.072337024 1.821688e-44
0.93244094 0.49739122 -0.07232067 1.6815582e-44
0.92954737 0.50068682 -0.073987976 2.2420775e-44
0.93203467 0.50079292 -0.073645972 1.821688e-44
0.93243802 0.36866751 -0.065451503 8.3229702e-40
0.94291705 0.36937255 -0.06770581 0
0.92923057 0.37319273 -0.068183549 7.3975106e-40
0.9320091 0.37150317 -0.067576289 8.3193969e-40
0.93800962 0.37038463 -0.067517564 1.0156023e-39
0.94157797 0.37069234 -0.067481913 1.847598e-40
0.92824459 0.37615088 -0.067631707 6.471995e-40
0.93141925 0.38214955 -0.068090931 7.3974546e-40
0.93252653 0.38653216 -0.067167297 6.4755263e-40
0.93395817 0.39308357 -0.066502675 5.5536121e-40
0.93511736 0.39342552 -0.067748815 7.3939513e-40
0.93343508 0.39744005 -0.06772466 4.6352571e-40
0.93605012 0.39726305 -0.069858521 4.6316838e-40
0.93422645 0.40356407 -0.068101369 4.635201e-40
0.93555111 0.40221566 -0.066510856 5.5571433e-40
0.93379003 0.40719414 -0.067791156 3.7097135e-40
0.93333387 0.41204521 -0.067435361 3.7096995e-40
0.93409586 0.4179779 -0.068043992 2.7913165e-40
0.93547547 0.41766 -0.065422624 2.7912604e-40
0.93405747 0.4228507 -0.06878452 2.7877572e-40
0.93552434 0.4222796 -0.066204578 3.7096855e-40
0.93434304 0.42929685 -0.069939733 9.4025726e-41
0.93647212 0.42793092 -0.067384519 1.8658009e-40
0.93390858 0.43309751 -0.068725824 9.4380254e-41
0.93673056 0.43283138 -0.066763327 9.4381655e-41
0.93371505 0.4369781 -0.069427401 1.8693041e-40
0.93735588 0.43746349 -0.066320777 9.4734783e-41
0.93800211 0.44291839 -0.066765837 9.4734783e-41
0.9341855 0.44847631 -0.065707237 2.1804204e-42
0.93716323 0.44725952 -0.067377612 2.5391528e-42
0.92914563 0.45068789 -0.066869825 1.8202867e-42
0.93299878 0.45105004 -0.067789331 1.8230893e-42
0.93746692 0.45102769 -0.069002777 2.1804204e-42
0.93218988 0.46262386 -0.069811389 1.8090763e-42
0.93177718 0.4696548 -0.069423527 1.098618e-42
0.93140173 0.47219658 -0.067956619 3.7975188e-43
0.92972451 0.47581363 -0.068274587 1.098618e-42
0.93237108 0.47727156 -0.068890266 7.3848429e-43
0.93281704 0.48391247 -0.069534987 3.7835059e-43
0.93341362 0.48791492 -0.069712073 3.0828566e-44
0.93340504 0.49228513 -0.0695896 1.821688e-44
0.92984134 0.49649215 -0.069613755 1.821688e-44
0.93313444 0.49744171 -0.069320463 1.821688e-44
0.9375506 0.50246978 -0.067315966 1.6815582e-44
0.93266737 0.36874077 -0.062410235 1.2000146e-39
0.93811101 0.36854672 -0.061099619 8.3299767e-40
0.94198626 0.36829039 -0.062313985 9.2199834e-41
0.94665563 0.36816648 -0.063045681 0
0.92945641 0.37261635 -0.063232817 7.3974966e-40
0.93060923 0.37190482 -0.06143865 9.2414092e-40
0.94088829 0.37041315 -0.062324442 5.5534299e-40
0.94821507 0.37065923 -0.060399801 0
0.95089597 0.37137908 -0.061598867 0
0.92972666 0.37680244 -0.063933909 8.3229982e-40
0.93076378 0.37674969 -0.061798006 8.3229842e-40
0.93287861 0.38244882 -0.062260259 7.4010559e-40
0.93414325 0.38799843 -0.062150866 7.3939093e-40
0.93433166 0.39346319 -0.062512018 7.3939513e-40
0.93539095 0.39229712 -0.06318818 7.3939513e-40
0.93434501 0.3966381 -0.061534658 5.5536261e-40
0.93522114 0.39931357 -0.062301874 5.5571433e-40
0.93482214 0.40154383 -0.061161056 4.6352151e-40
0.93638849 0.40315849 -0.0639112 4.6352151e-40
0.93616122 0.40716252 -0.062496334 4.6316698e-40
0.93385828 0.41379613 -0.064776808 2.7877572e-40
0.93708485 0.41263661 -0.062756047 3.7097275e-40
0.93315601 0.41728839 -0.063153729 3.7132307e-40
0.93803519 0.41837698 -0.062723443 3.7097135e-40
0.94093555 0.4199959 -0.064324349 3.7097275e-40
0.93467057 0.42215955 -0.063121051 2.7912604e-40
0.93694168 0.42138183 -0.061525241 3.7097275e-40
0.93446624 0.42928407 -0.062211424 1.8693322e-40
0.93847001 0.42822719 -0.062619701 2.7877712e-40
0.93391097 0.43129823 -0.061591461 9.4380254e-41
0.9389503 0.43072182 -0.063964784 2.7877712e-40
0.93461931 0.4382484 -0.061409365 9.4378853e-41
0.93570375 0.43643698 -0.061732858 2.1860256e-42
0.93443149 0.44392985 -0.061746381 2.5433567e-42
0.93514252 0.44214663 -0.061833486 9.4734783e-41
0.9330048 0.44777849 -0.062162433 1.821688e-42
0.93755239 0.44680262 -0.06010735 9.4734783e-41
0.92945522 0.46847475 -0.062890738 1.098618e-42
0.9329645 0.47089148 -0.060839385 1.460153e-42
0.93558252 0.4709748 -0.060242623 3.9376487e-43
0.93625599 0.49881417 -0.061531752 1.6815582e-44
0.93718034 0.50127596 -0.061888672 1.6815582e-44
0.9432165 0.50552231 -0.060873538 1.6815582e-44
0.92968142 0.36849582 -0.058938116 1.108535e-39
0.93317139 0.36864299 -0.057072636 1.1088895e-39
0.93579584 0.36776966 -0.059181735 1.1099489e-39
0.94191933 0.36996925 -0.059301853 1.8548427e-40
0.93139952 0.37231466 -0.05816479 9.2413952e-40
0.94687426 0.37124664 -0.058710691 4.2038954e-45
0.93167514 0.37687683 -0.057273604 8.3194389e-40
0.93284309 0.38211775 -0.057641916 8.3194249e-40
0.9344821 0.38813433 -0.056330182 8.3123343e-40
0.93535697 0.38789138 -0.058029275 7.3939093e-40
0.93431205 0.39262992 -0.057682902 7.3939373e-40
0.93544 0.39232832 -0.055576771 7.3975106e-40
0.93437994 0.3979103 -0.057838093 6.4791136e-40
0.93554413 0.39767969 -0.05808609 7.3974826e-40
0.93601704 0.4021821 -0.056832828 6.4755684e-40
0.93771291 0.40678647 -0.057902128 6.4755824e-40
0.93783218 0.41174221 -0.05823721 5.5536261e-40
0.93885779 0.41767365 -0.058291957 3.7097275e-40
0.94021976 0.41593242 -0.056971818 5.5536401e-40
0.93774939 0.42125982 -0.057440188 3.7097275e-40
0.93719721 0.42770535 -0.057865668 2.7877572e-40
0.94159997 0.42743343 -0.056321412 3.7097275e-40
0.93497336 0.43124413 -0.059403509 2.7877572e-40
0.93750018 0.43092161 -0.057364166 1.8657869e-40
0.94058669 0.43047351 -0.055754304 2.7877572e-40
0.93670815 0.43739498 -0.057770815 9.4381655e-41
0.93475741 0.44272411 -0.057144195 1.8328984e-42
0.93636835 0.4427861 -0.057438895 9.4024324e-41
0.9346875 0.44666222 -0.058781192 2.5391528e-42
0.93706149 0.4470613 -0.05717063 1.8314971e-42
0.92899275 0.46827048 -0.059058577 1.098618e-42
0.93713999 0.46931088 -0.05678001 1.1000193e-42
0.94000101 0.46620929 -0.055175155 7.5389857e-43
0.93404186 0.47083664 -0.058620676 3.9376487e-43
0.93701655 0.47111571 -0.057722688 7.4268819e-43
0.94154322 0.47151548 -0.058437988 1.460153e-42
0.93880463 0.49868447 -0.056283057 1.821688e-44
0.9379214 0.50026071 -0.056742281 1.6815582e-44
0.94387037 0.50130135 -0.055765241 3.7835059e-43
0.93176699 0.36897007 -0.052703056 7.4191047e-40
0.93509185 0.36913794 -0.05446133 7.4369852e-40
0.93119669 0.3724674 -0.052222412 6.493547e-40
0.93208683 0.37753314 -0.053019073 7.401112e-40
0.933478 0.3827436 -0.053256553 7.3975106e-40
0.93613887 0.38469422 -0.050911039 9.2414232e-40
0.93495053 0.38621354 -0.052062869 7.3975106e-40
0.93609142 0.38863727 -0.052496463 7.3975106e-40
0.93653518 0.39263892 -0.052996077 7.3974966e-40
0.93394965 0.39679992 -0.054742604 7.3974546e-40
0.93834049 0.39753744 -0.052327283 7.4010559e-40
0.93793929 0.40238649 -0.052855056 7.3939373e-40
0.93754649 0.40705037 -0.054277718 5.5571994e-40
0.94007218 0.40592736 -0.053699613 7.3975106e-40
0.93778485 0.4165591 -0.054059416 4.635187e-40
0.9394148 0.42043197 -0.054670244 3.7097275e-40
0.94068545 0.42350641 -0.054252937 3.7097275e-40
0.93932134 0.42655468 -0.054416955 3.7097275e-40
0.94276774 0.42812112 -0.053252921 2.7877712e-40
0.93800849 0.43383092 -0.054458916 9.4381655e-41
0.94150996 0.43241891 -0.052083652 1.8658009e-40
0.93796188 0.43716234 -0.052618794 1.8693322e-40
0.94033664 0.43646324 -0.050961643 9.4025726e-41
0.93784654 0.442664 -0.053189546 2.1888282e-42
0.94022936 0.44263655 -0.050692588 9.4734783e-41
0.93766284 0.44613644 -0.05298619 2.1888282e-42
0.9410913 0.44812495 -0.051485233 9.4381655e-41
0.93862724 0.45200607 -0.053224564 2.1804204e-42
0.94133037 0.45311642 -0.051536411 1.8286945e-42
0.93998206 0.45589495 -0.051906794 1.8202867e-42
0.94219172 0.45909423 -0.051895559 1.8258919e-42
0.94247121 0.46286637 -0.052390896 1.4615543e-42
0.93355739 0.46896189 -0.052578025 7.3848429e-43
0.93938565 0.4687632 -0.05420237 1.4573504e-42
0.94132805 0.46758017 -0.052411638 1.4573504e-42
0.93812084 0.47093773 -0.052083772 3.7835059e-43
0.94349039 0.47088522 -0.051159367 1.460153e-42
0.93989688 0.49862891 -0.054033607 1.821688e-44
0.94162291 0.49731609 -0.051566776 1.821688e-44
0.93937773 0.50018668 -0.053743035 1.821688e-44
0.94046998 0.50013107 -0.0514936 1.6815582e-44
0.93138009 0.36971605 -0.049292445 1.0166897e-39
0.93298435 0.37237644 -0.048540678 8.3265996e-40
0.93622887 0.3748832 -0.046966597 6.4970503e-40
0.93386531 0.37790501 -0.049257517 9.2343046e-40
0.93661606 0.37785092 -0.046508618 8.3194669e-40
0.93772662 0.3826752 -0.047866333 7.3975106e-40
0.94085646 0.38459349 -0.046058744 9.2414232e-40
0.93891358 0.38764021 -0.048273515 7.3975247e-40
0.9404875 0.38760766 -0.046652183 9.2449825e-40
0.93882388 0.39142349 -0.049258456 8.3194389e-40
0.94221872 0.39335704 -0.047378477 8.3194249e-40
0.94243848 0.39699128 -0.047037136 7.4010699e-40
0.94242829 0.40042019 -0.046150863 8.3229982e-40
0.94529194 0.40270549 -0.045575112 7.3939513e-40
0.94306594 0.42785358 -0.045382559 1.8693041e-40
0.94353652 0.43276858 -0.04750789 1.8657869e-40
0.94164765 0.43763536 -0.047615159 1.8622136e-40
0.94116348 0.44305691 -0.047522109 9.4380254e-41
0.94179642 0.44799447 -0.04762353 1.8314971e-42
0.94238168 0.45268422 -0.047712963 1.8328984e-42
0.94396383 0.45773765 -0.047874708 1.8300958e-42
0.94516772 0.45969808 -0.045096189 7.5389857e-43
0.94417423 0.46387792 -0.04846235 1.821688e-42
0.94552577 0.46290106 -0.046485387 1.4629556e-42
0.94324064 0.46736884 -0.047327172 1.4573504e-42
0.93819821 0.47213554 -0.048719734 1.098618e-42
0.94172299 0.47209612 -0.0476835 7.3988559e-43
0.94187456 0.488783 -0.046147153 3.7835059e-43
0.94238627 0.49203777 -0.047167093 1.9618179e-44
0.94347936 0.49742582 -0.04756235 1.821688e-44
0.94229043 0.5000385 -0.047744542 1.821688e-44
0.93725026 0.36916041 -0.041171715 9.259556e-40
0.93611795 0.3725062 -0.041830361 4.6676131e-40
0.9417851 0.37031054 -0.041826844 1.3851149e-39
0.94733602 0.37222961 -0.041406263 1.0170358e-39
0.93814772 0.37722754 -0.041677527 7.4083006e-40
0.9379276 0.3807472 -0.043171078 9.2414232e-40
0.94114262 0.38298082 -0.041901559 9.2414232e-40
0.94215178 0.38707477 -0.042554338 7.3975106e-40
0.94266909 0.39163059 -0.042228572 7.3939373e-40
0.94364059 0.39704728 -0.042438801 6.4755824e-40
0.94436359 0.40081286 -0.041729085 5.5500948e-40
0.94523066 0.40027761 -0.040379435 7.3975106e-40
0.94564658 0.40786102 -0.04025057 4.6352431e-40
0.94140297 0.43734211 -0.042949982 9.4378853e-41
0.94235277 0.44187197 -0.042746611 9.4736184e-41
0.94241911 0.44683039 -0.042359706 1.8286945e-42
0.94312578 0.45295757 -0.042912062 1.8258919e-42
0.94412506 0.45718971 -0.042037517 1.8202867e-42
0.94651586 0.457596 -0.040385216 1.1070258e-42
0.94460571 0.46350256 -0.042900518 1.1000193e-42
0.94587034 0.4621796 -0.041413732 1.4615543e-42
0.94437426 0.46771964 -0.04263512 1.4559491e-42
0.94514251 0.46670449 -0.043914467 1.460153e-42
0.94351757 0.47158021 -0.043004911 1.1000193e-42
0.94098389 0.47599757 -0.04441452 7.314778e-43
0.94327128 0.48833117 -0.043608874 3.7835059e-43
0.94407153 0.49233365 -0.043357439 3.7835059e-43
0.94549698 0.49162513 -0.040986627 3.7835059e-43
0.94357538 0.49777061 -0.0425657 1.821688e-44
0.94622117 0.4976947 -0.041553017 1.821688e-44
0.93808216 0.3716833 -0.038427442 1.1078259e-39
0.94250059 0.37228158 -0.037573162 1.2929347e-39
0.9482646 0.37234166 -0.038141441 9.2449685e-40
0.95063186 0.37166873 -0.036962546 1.1210388e-44
0.9395569 0.37761545 -0.037536085 1.0163394e-39
0.94051719 0.3765994 -0.036417246 1.1071071e-39
0.94743109 0.37536669 -0.035428107 1.8446735e-39
0.9409923 0.38191882 -0.037550777 9.2414232e-40
0.94356024 0.38796487 -0.037374694 8.3230122e-40
0.94366199 0.39190999 -0.038644116 7.3974966e-40
0.9451949 0.39183199 -0.035487175 5.5571994e-40
0.94665527 0.39718807 -0.037631344 6.4755684e-40
0.94458193 0.40325731 -0.039098814 6.4684778e-40
0.94628239 0.40151334 -0.037068721 5.5536261e-40
0.93823665 0.40757143 -0.036154956 4.6316417e-40
0.943784 0.40771788 -0.036817193 6.4755684e-40
0.94705242 0.40778953 -0.037355393 5.5536121e-40
0.93974817 0.41290188 -0.03572081 4.635187e-40
0.93900049 0.4151451 -0.035302341 4.635187e-40
0.94208962 0.42060632 -0.036418647 4.635187e-40
0.94251502 0.43681821 -0.038581476 9.4380254e-41
0.94571847 0.43917799 -0.037224323 9.4025726e-41
0.94389272 0.44151223 -0.038993999 9.4022923e-41
0.9460268 0.44224781 -0.036342815 9.4380254e-41
0.94412696 0.44714466 -0.03848638 1.8300958e-42
0.9457249 0.44610065 -0.03605029 9.437605e-41
0.94480205 0.45244306 -0.039840847 1.8202867e-42
0.9459762 0.45313448 -0.03675583 1.8202867e-42
0.94711083 0.45730174 -0.037524208 1.8202867e-42
0.94753981 0.46274909 -0.037394498 1.1014206e-42
0.94466007 0.46828258 -0.038541608 1.098618e-42
0.94611007 0.46655458 -0.03702423 1.1000193e-42
0.94409692 0.47032505 -0.037912935 1.098618e-42
0.94517422 0.47027028 -0.035694242 1.098618e-42
0.94675177 0.48897302 -0.036960453 3.7835059e-43
0.9467594 0.4928329 -0.037257165 3.7835059e-43
0.94719583 0.49772793 -0.037976217 1.821688e-44
0.94681996 0.36854124 -0.030308098 1.5695145e-39
0.94368649 0.37424049 -0.032839376 1.3826136e-39
0.94719702 0.37168038 -0.032782506 1.4787496e-39
0.95177454 0.37234163 -0.033960193 1.9618179e-44
0.94242668 0.37720713 -0.032856252 1.0156303e-39
0.94787753 0.37607342 -0.033861026 1.6620591e-39
0.94257063 0.38160148 -0.032640614 9.2414373e-40
0.94410324 0.38728118 -0.034345374 8.3230262e-40
0.94606304 0.38783756 -0.032220133 7.3974826e-40
0.94443566 0.39025962 -0.033494383 7.3975106e-40
0.94602579 0.39231753 -0.031312574 7.3975106e-40
0.94665122 0.39679432 -0.03300257 7.390392e-40
0.94685185 0.40230864 -0.03204716 6.4755684e-40
0.93943119 0.40775484 -0.033477813 3.7097275e-40
0.94212216 0.4066844 -0.032366585 4.6316698e-40
0.94783962 0.40787593 -0.033751667 5.5536401e-40
0.94138163 0.4127138 -0.032449998 3.7097275e-40
0.94327778 0.41823968 -0.033526212 3.7132307e-40
0.94540238 0.41895962 -0.030908823 3.7132307e-40
0.9434284 0.42169291 -0.033882946 3.7096855e-40
0.94584006 0.42355615 -0.0308927 2.7877572e-40
0.94388539 0.42711213 -0.031848688 1.8657729e-40
0.94533783 0.42506307 -0.030611575 9.4025726e-41
0.9445712 0.43205929 -0.033492833 2.7912604e-40
0.94598466 0.4319874 -0.030581892 9.4734783e-41
0.94773805 0.43706912 -0.031106293 9.4380254e-41
0.94744551 0.44133151 -0.031677231 9.4380254e-41
0.95045245 0.44136772 -0.030303523 1.8622136e-40
0.9448117 0.44989085 -0.034606606 9.4734783e-41
0.94697446 0.44760263 -0.032086924 2.5391528e-42
0.94679683 0.45256442 -0.031794712 2.5391528e-42
0.94857305 0.45545787 -0.03421405 9.4734783e-41
0.95019519 0.45944226 -0.034742326 2.1804204e-42
0.9493559 0.46280774 -0.03352011 1.8202867e-42
0.95036811 0.4624542 -0.031703882 2.1804204e-42
0.94816464 0.46659395 -0.032665204 1.460153e-42
0.94589245 0.47023368 -0.034215122 1.460153e-42
0.94602746 0.48669952 -0.031776749 3.7835059e-43
0.94726765 0.49140283 -0.032470621 3.7835059e-43
0.94601887 0.4971956 -0.034941524 3.7835059e-43
0.94397438 0.36921459 -0.028218664 1.0206399e-39
0.94788027 0.36854014 -0.027329329 7.3901959e-40
0.94401562 0.37226054 -0.026673716 1.2003873e-39
0.94534427 0.37296867 -0.029482141 1.5695089e-39
0.94260943 0.37698758 -0.027928932 9.2414653e-40
0.94505042 0.37588513 -0.027510747 1.0156359e-39
0.94305426 0.38182911 -0.027680367 8.3194669e-40
0.945952 0.38747734 -0.027786687 7.3939373e-40
0.94596255 0.39249048 -0.027302656 6.4755824e-40
0.94480127 0.39917839 -0.029791951 8.3229982e-40
0.94620001 0.39810395 -0.026971109 7.3939233e-40
0.94754219 0.40353775 -0.027632618 5.5536121e-40
0.94193929 0.40694341 -0.028920013 4.6316698e-40
0.94609898 0.40724966 -0.027374053 3.7132868e-40
0.94336003 0.41271815 -0.028282352 3.7061542e-40
0.94585651 0.41295689 -0.02614077 3.7097275e-40
0.94781178 0.41795015 -0.026734367 2.7877852e-40
0.94712007 0.42293796 -0.027085587 2.7877712e-40
0.94590533 0.42725629 -0.02746976 1.8658009e-40
0.94839627 0.43344712 -0.026703727 1.8621855e-40
0.94806957 0.43623772 -0.027406601 9.4381655e-41
0.94900262 0.44224843 -0.027585905 2.1902295e-42
0.94877803 0.44802517 -0.02791569 2.5377515e-42
0.95009965 0.44662678 -0.02637589 1.8693041e-40
0.94700068 0.45277444 -0.027438957 1.821688e-42
0.9481408 0.45913956 -0.026452061 1.8202867e-42
0.94842386 0.46224034 -0.028505214 2.1804204e-42
0.94797808 0.47942564 -0.026650235 1.460153e-42
0.94746494 0.48096532 -0.026363 1.1000193e-42
0.94844013 0.48754427 -0.02677984 7.3988559e-43
0.94906771 0.49070191 -0.029304415 1.098618e-42
0.94853449 0.36931151 -0.02414551 8.3265155e-40
0.95189804 0.36946374 -0.022541679 1.8511993e-40
0.94456643 0.37352228 -0.02314733 1.1074728e-39
0.94722015 0.37210074 -0.022224737 1.3851191e-39
0.95263952 0.37127471 -0.020619735 9.5082305e-41
0.95570433 0.37202811 -0.02098082 4.2038954e-45
0.94331396 0.37700376 -0.022691851 7.40114e-40
0.94408184 0.38336971 -0.022903007 7.3975247e-40
0.94535059 0.38312382 -0.020451054 7.3975106e-40
0.94445115 0.3876853 -0.023280308 7.3939513e-40
0.94768786 0.38994199 -0.021944717 7.3939513e-40
0.94708669 0.39270103 -0.022422297 3.7205035e-40
0.94731498 0.3969636 -0.022312444 3.7240768e-40
0.9470129 0.40199643 -0.022634957 4.6352571e-40
0.94804144 0.40775463 -0.022837525 3.7133008e-40
0.94809717 0.41263342 -0.022751052 3.7096855e-40
0.95014131 0.41034102 -0.021108016 4.635187e-40
0.94931829 0.41826767 -0.023281857 3.7097275e-40
0.95047241 0.41722345 -0.021780014 3.7097275e-40
0.94847989 0.42241964 -0.022071695 3.7097275e-40
0.94750327 0.42791566 -0.02352101 2.7877712e-40
0.94972116 0.43328351 -0.021567032 2.7877572e-40
0.95045674 0.43492472 -0.023548573 9.4025726e-41
0.94932878 0.43796092 -0.023226377 2.1874269e-42
0.95040751 0.43716133 -0.021665968 9.4025726e-41
0.94915503 0.4417944 -0.02268137 9.4378853e-41
0.95042479 0.44391936 -0.0231089 1.8693041e-40
0.94968837 0.44804499 -0.023488656 9.4734783e-41
0.95062715 0.44805738 -0.022998011 9.437605e-41
0.94886857 0.45332116 -0.023022391 1.8272932e-42
0.95030618 0.45160791 -0.021517944 2.1804204e-42
0.94738197 0.45738867 -0.02198478 7.5249728e-43
0.94569677 0.46219999 -0.021813279 7.4689208e-43
0.94660771 0.46767473 -0.022514774 3.8815967e-43
0.94771445 0.4728151 -0.020607717 1.098618e-42
0.948394 0.47790998 -0.022133857 3.9376487e-43
0.94842935 0.48239002 -0.022236865 7.4128689e-43
0.94838303 0.48702273 -0.022257723 7.3988559e-43
0.94676733 0.37337312 -0.01740098 1.1092553e-39
0.95180154 0.37287107 -0.017848929 1.4780308e-39
0.95656395 0.37320012 -0.018130895 2.7696244e-40
0.94434279 0.37809795 -0.017559875 6.4863864e-40
0.94545293 0.3774536 -0.017790575 6.4971764e-40
0.95323485 0.37560642 -0.015520155 2.0290648e-39
0.94427669 0.38148981 -0.016681977 4.6461312e-40
0.94579452 0.38382661 -0.018892616 6.4720511e-40
0.94648904 0.38813126 -0.017598033 6.4720511e-40
0.94781864 0.39317727 -0.01754985 6.4720231e-40
0.94793189 0.39630729 -0.017441165 7.3939934e-40
0.9492991 0.40212429 -0.017709706 5.5500387e-40
0.95032704 0.40109515 -0.016460113 6.471995e-40
0.95154977 0.40696773 -0.017814815 1.8801922e-40
0.94984287 0.4133029 -0.019105971 3.7097275e-40
0.95128584 0.4113352 -0.017816475 3.7097275e-40
0.94843191 0.41779464 -0.018086849 3.7096995e-40
0.95235503 0.41675815 -0.018231176 3.7097275e-40
0.9481321 0.42237538 -0.018390264 2.7913165e-40
0.94931984 0.43726715 -0.018874314 1.8272932e-42
0.95022833 0.43697324 -0.017223269 1.8622136e-40
0.94960082 0.44167066 -0.01935941 2.5391528e-42
0.95174485 0.44283262 -0.017555445 1.8314971e-42
0.95217383 0.44749326 -0.017500848 2.1874269e-42
0.95182246 0.45237932 -0.017641759 2.5419554e-42
0.94806904 0.45758671 -0.018146489 1.4671595e-42
0.95063496 0.45678243 -0.016231049 1.8230893e-42
0.94769067 0.46272245 -0.017152766 1.4615543e-42
0.94734591 0.46727511 -0.016827723 1.4573504e-42
0.94851792 0.47194338 -0.018028628 1.460153e-42
0.94954002 0.47835511 -0.01932659 1.1000193e-42
0.95111692 0.47733092 -0.016917259 1.4573504e-42
0.9493227 0.4818891 -0.017643038 3.7835059e-43
0.95020831 0.48058665 -0.015938416 3.7835059e-43
0.94895995 0.48744816 -0.017459897 3.7835059e-43
0.9507302 0.48723024 -0.016421041 3.7835059e-43
0.94923306 0.37473083 -0.012252565 9.2523113e-40
0.95306295 0.37360236 -0.013173372 1.018496e-39
0.95680106 0.37311655 -0.013431666 5.5535e-40
0.94435585 0.37867412 -0.014028689 7.3976227e-40
0.94771129 0.37709042 -0.012362681 6.4971764e-40
0.95160437 0.3755517 -0.014013343 1.2018152e-39
0.94331187 0.38113177 -0.014043346 7.3975106e-40
0.9463138 0.38098335 -0.011597384 7.3868748e-40
0.94781578 0.38689494 -0.012745341 7.3939513e-40
0.94805872 0.39113683 -0.012622967 7.3939373e-40
0.95026678 0.39345786 -0.013394967 7.3939513e-40
0.94938678 0.39672065 -0.014011979 5.5500948e-40
0.95094311 0.39746523 -0.011405217 6.4720371e-40
0.94930869 0.40024608 -0.014370412 5.5466056e-40
0.9509142 0.40235379 -0.011969505 5.5536541e-40
0.95078033 0.40751061 -0.012302871 4.635187e-40
0.95111561 0.41109848 -0.013397953 3.7132868e-40
0.95228302 0.44302365 -0.012512948 1.8693462e-40
0.95328063 0.44783157 -0.012377578 9.4737585e-41
0.95245361 0.45193714 -0.012342509 2.5391528e-42
0.94821835 0.45997038 -0.013499126 1.8202867e-42
0.95208991 0.4571951 -0.012802381 1.8244906e-42
0.94905245 0.46405083 -0.013107202 1.460153e-42
0.95100731 0.46105629 -0.011652376 1.8258919e-42
0.94889289 0.46718103 -0.012533437 1.4573504e-42
0.95205826 0.46859932 -0.010222524 7.5389857e-43
0.94940573 0.47023654 -0.014351159 1.8104776e-42
0.95091152 0.47334665 -0.012160391 1.0972167e-42
0.95144594 0.47770119 -0.012155756 7.3988559e-43
0.95148587 0.4816964 -0.012264197 7.4408948e-43
0.94978398 0.48992884 -0.013522536 3.0828566e-44
0.9514246 0.48812103 -0.012506151 3.8395578e-43
0.95805615 0.36942029 -0.0058795214 7.0064923e-45
0.94863313 0.37460923 -0.0086362362 1.2010893e-39
0.95194286 0.37380636 -0.0083055478 1.3851317e-39
0.95655417 0.37303931 -0.0065394151 1.0166897e-39
0.94782913 0.37769589 -0.0075872825 1.0149128e-39
0.9520027 0.37627128 -0.0069258399 1.1996684e-39
0.95539874 0.3753587 -0.0061990321 1.5695089e-39
0.94717163 0.38198298 -0.0076575875 9.2307453e-40
0.94923013 0.38776237 -0.0081671085 7.3975106e-40
0.95018291 0.38795567 -0.0059900507 7.3975106e-40
0.94946742 0.39102268 -0.008512713 7.4010559e-40
0.95023215 0.39175326 -0.0075012296 7.3974826e-40
0.95259398 0.39705452 -0.0072980286 6.471981e-40
0.95183128 0.40214214 -0.0073778564 4.6316838e-40
0.95192373 0.40760767 -0.0073164795 4.6352291e-40
0.95233142 0.41226166 -0.0098061711 4.6316838e-40
0.95289075 0.44246399 -0.0079906881 1.8657588e-40
0.95334029 0.4462679 -0.0074070292 9.4737585e-41
0.95386249 0.45306581 -0.0077517014 9.437605e-41
0.95547098 0.45113394 -0.0060819588 1.8693041e-40
0.95333672 0.45822531 -0.0077674421 2.8992865e-42
0.94969213 0.46288392 -0.0078102574 1.8202867e-42
0.9508664 0.46269366 -0.0080013573 1.4685608e-42
0.94929576 0.46805081 -0.007380873 1.460153e-42
0.95034999 0.46757883 -0.0072435141 1.8202867e-42
0.9490366 0.47123957 -0.0067570331 1.1000193e-42
0.95154887 0.47012746 -0.0099374354 1.460153e-42
0.95343995 0.48247695 -0.0082894247 1.098618e-42
0.95560884 0.48248941 -0.0062074563 1.4559491e-42
0.9534328 0.48747286 -0.0080242585 1.0972167e-42
0.95564204 0.48509008 -0.0054905415 1.460153e-42
0.95479888 0.49232686 -0.0083190054 1.098618e-42
0.95577824 0.49151784 -0.006976068 1.1000193e-42
0.95370239 0.37450343 -0.0030482486 1.2932822e-39
0.95727038 0.37381268 -0.0036327839 1.4776692e-39
0.96133339 0.37374043 -0.00013279915 2.3822074e-44
0.94915819 0.37842977 -0.0041384203 7.3975106e-40
0.95258933 0.37702912 -0.0022416345 1.0152744e-39
0.95718944 0.37575114 -0.0020817346 1.6606368e-39
0.96014905 0.37525463 -0.0012808144 1.5698649e-39
0.94896668 0.38252315 -0.0037563231 7.3975247e-40
0.95100176 0.38110638 -0.0016219579 8.3230963e-40
0.94943672 0.38628805 -0.0015611053 3.7420554e-40
0.95261353 0.38710663 -0.0016285753 2.8164978e-40
0.94979006 0.39015186 -0.0048666894 8.3229982e-40
0.95233154 0.39160395 -0.0019686259 4.6424458e-40
0.95432174 0.3975983 -0.0033215987 5.5572134e-40
0.95591354 0.39991003 -0.00076813251 4.6316277e-40
0.95377952 0.40221173 -0.0032155961 4.635187e-40
0.95540881 0.40335798 -0.0025088191 4.6316417e-40
0.95336735 0.40790057 -0.0040182732 4.6352151e-40
0.9582116 0.4094764 -0.0023975335 4.6316838e-40
0.95267212 0.41050011 -0.0031729341 3.7097275e-40
0.9581334 0.41288111 -0.0020321733 4.6316838e-40
0.95703626 0.41744992 -0.002777579 3.7097275e-40
0.95769542 0.42188168 -0.0024419308 4.6316277e-40
0.95722854 0.42686352 -0.0023252617 3.7096995e-40
0.95292592 0.43335837 -0.0022884435 2.7841699e-40
0.95711172 0.43237805 -0.0014735567 2.7878272e-40
0.95257556 0.43901479 -0.0029897119 1.8657729e-40
0.95491606 0.44661319 -0.0037838966 1.8693041e-40
0.95602864 0.44606018 -0.0019332792 9.4734783e-41
0.9536044 0.45263767 -0.0011946857 9.4734783e-41
0.95663905 0.45225745 -0.0026258919 9.4734783e-41
0.94971216 0.4580487 -0.0045813024 1.8328984e-42
0.95340645 0.45832506 -0.0029328763 2.1804204e-42
0.95579475 0.45822835 -0.0020928711 2.1846243e-42
0.9489547 0.46032143 -0.0041573346 2.1804204e-42
0.95141286 0.46286115 -0.0029623187 1.8202867e-42
0.95177549 0.46819359 -0.002450753 1.8230893e-42
0.95078641 0.47145006 -0.0028872669 1.8202867e-42
0.95318842 0.47768241 -0.0022715069 1.460153e-42
0.95413631 0.48350304 -0.0032115132 1.460153e-42
0.955136 0.48486704 -0.0017664284 1.460153e-42
0.95461565 0.48816943 -0.0049160868 1.460153e-42
0.95556867 0.48805794 -0.0017625801 7.3848429e-43
0.95696497 0.49221665 -0.0038579702 1.098618e-42
0.96275055 0.37276965 0.0029849918 1.1210388e-44
0.95826358 0.37869495 0.0015462656 1.1088993e-39
0.9613893 0.37690997 0.0027992807 1.3854764e-39
0.95261043 0.38251179 0.00176505 4.6496344e-40
0.95668417 0.38218448 0.0025677867 3.7420695e-40
0.96418297 0.38034976 0.0042532086 1.20179e-39
0.95290506 0.38797408 0.002248707 6.4755543e-40
0.95652699 0.38551015 0.0035277954 1.9017442e-40
0.95278895 0.3918272 0.0025168434 6.471995e-40
0.95497823 0.3997829 0.0021374524 5.5571433e-40
0.95537329 0.39757454 0.0010078698 5.5571714e-40
0.95566672 0.40235943 0.00088745856 3.7132307e-40
0.95388639 0.40774724 0.0035871617 3.7097275e-40
0.95721471 0.40857089 0.00093396008 4.6316838e-40
0.95460761 0.41212186 0.0033379556 3.7132868e-40
0.95647734 0.41425598 0.00069022179 4.6316838e-40
0.9601509 0.41130513 0.00081442297 3.7097275e-40
0.9561981 0.41762599 0.0018483624 4.6316137e-40
0.95468426 0.42169762 0.0035248101 4.6316838e-40
0.95660108 0.42255458 0.0028342665 3.7096855e-40
0.95773399 0.42757067 0.0026912689 3.7132447e-40
0.95690429 0.43275011 0.0023709021 2.7877572e-40
0.95465517 0.43866211 0.0010738671 2.7877572e-40
0.95561075 0.4378728 0.0023840487 1.8622136e-40
0.95642108 0.4439474 0.0024187914 1.8657448e-40
0.95697069 0.44788906 0.0041666776 9.4734783e-41
0.95406014 0.45335925 0.00040526688 1.8693041e-40
0.95733529 0.45179424 0.0021683916 9.437605e-41
0.95234042 0.45881298 0.0022521876 2.1804204e-42
0.95689648 0.45803457 0.0030459084 2.1846243e-42
0.95309901 0.46259022 0.0015927404 1.8202867e-42
0.95562989 0.4618347 0.0037548095 2.5391528e-42
0.95327818 0.46724647 0.0023643244 1.4615543e-42
0.95530164 0.46882433 0.004283905 1.8202867e-42
0.95277959 0.47222194 0.0024915994 1.1056245e-42
0.95369732 0.47843114 0.0019577562 1.1028219e-42
0.95568633 0.47667739 0.004586637 7.5389857e-43
0.95394057 0.4816969 0.0020451497 1.460153e-42
0.95610654 0.48142132 0.0046967939 1.460153e-42
0.95483011 0.48790336 0.00028592348 1.098618e-42
0.95700121 0.48762676 0.0029474176 1.1000193e-42
0.96269172 0.37265533 0.007995978 4.6135089e-40
0.96617335 0.37349415 0.0098347366 0
0.96271837 0.37706265 0.0057321042 1.108528e-39
0.95378274 0.38408193 0.0072889281 8.3194669e-40
0.95773 0.38337874 0.0064525679 5.5715767e-40
0.9608447 0.38200462 0.006177207 9.2522273e-40
0.95326489 0.38768068 0.0066636954 6.4755684e-40
0.95718437 0.38727766 0.0068964846 5.5679894e-40
0.94963825 0.39447159 0.0061300201 5.5571433e-40
0.9515667 0.39264965 0.0079476964 5.5536261e-40
0.95550716 0.39131176 0.0081956387 4.6316558e-40
0.94954163 0.39712742 0.008285135 4.6316558e-40
0.95055431 0.39758527 0.0070829093 4.6352571e-40
0.95203304 0.40258297 0.0075681093 3.7133148e-40
0.95285803 0.40776524 0.0085039251 3.7097275e-40
0.95528001 0.4070617 0.0092363358 5.5571994e-40
0.95376575 0.41255561 0.0078109726 3.7097135e-40
0.95527607 0.41310096 0.0096039176 4.6316838e-40
0.95403999 0.41772294 0.0069510392 3.7097135e-40
0.95551401 0.41841456 0.0098361969 4.635187e-40
0.95407206 0.42068589 0.0088183284 3.7132307e-40
0.95620859 0.42382529 0.008622326 2.7913165e-40
0.95631266 0.42767215 0.0081016775 2.7877151e-40
0.95455879 0.43221617 0.007614404 3.7097275e-40
0.95727605 0.43298641 0.0076051019 2.7877712e-40
0.95755243 0.43832394 0.0078686355 2.7877712e-40
0.95636809 0.44209322 0.0077258311 2.7877292e-40
0.95769531 0.44808203 0.0073591708 1.8693041e-40
0.95762235 0.45149404 0.0072434186 9.4734783e-41
0.95887595 0.45812067 0.0072885025 2.5391528e-42
0.96024531 0.45637 0.008615762 1.8693041e-40
0.95723432 0.46252191 0.0072885104 1.821688e-42
0.95630342 0.46683103 0.0076143327 1.460153e-42
0.95704836 0.47229195 0.0072991699 1.4615543e-42
0.9567579 0.47662288 0.0067935064 7.5389857e-43
0.95692348 0.48183829 0.0076176478 7.4128689e-43
0.95811307 0.48723286 0.0065999329 7.3848429e-43
0.96285719 0.37369978 0.010518387 4.6314876e-40
0.95378482 0.3844462 0.010941461 7.3975106e-40
0.95420206 0.38821459 0.010178886 6.471995e-40
0.9573788 0.38976574 0.010761887 7.3939513e-40
0.95273137 0.39262724 0.011002079 7.3939373e-40
0.95664173 0.39324886 0.012303745 6.4755263e-40
0.9537248 0.39729294 0.011251914 4.6352571e-40
0.95638627 0.39713269 0.013552624 5.5571714e-40
0.95389837 0.40100858 0.012423232 4.6316558e-40
0.95646119 0.40161434 0.014365315 5.5536401e-40
0.95498455 0.40999442 0.011218667 3.7097275e-40
0.95716393 0.40798193 0.012909992 4.6316417e-40
0.95706362 0.41252264 0.012852354 3.7132447e-40
0.95709383 0.41778469 0.012601864 3.7097135e-40
0.95776141 0.42332745 0.012695042 2.7878272e-40
0.95811766 0.42779118 0.012837301 3.7097275e-40
0.95818061 0.43263134 0.013111962 2.7877712e-40
0.9600721 0.43299478 0.012428686 3.7097275e-40
0.95486361 0.43956727 0.014783785 2.7912604e-40
0.95880264 0.43842474 0.013581336 1.8658149e-40
0.95688874 0.44158253 0.012246583 1.8657588e-40
0.95485878 0.44656348 0.013505667 1.8693041e-40
0.9556393 0.44688964 0.012944656 9.4734783e-41
0.9543615 0.45200944 0.012308374 9.4381655e-41
0.95750815 0.45369422 0.012946367 9.4734783e-41
0.95794451 0.45779896 0.014185121 2.1804204e-42
0.95887893 0.46291459 0.011551785 1.8286945e-42
0.96014655 0.46085775 0.012393162 2.1804204e-42
0.95810443 0.46705028 0.012846014 1.4629556e-42
0.95450366 0.47359699 0.011829486 7.4969468e-43
0.95642608 0.47173223 0.012723369 1.4587517e-42
0.95462906 0.47784346 0.010877317 3.3631163e-44
0.95545983 0.47780117 0.01258824 1.1042232e-42
0.95444441 0.48084778 0.013156593 7.5389857e-43
0.95553744 0.48344535 0.010283262 3.9376487e-43
0.95821881 0.39335001 0.015712515 5.5571433e-40
0.95840526 0.39835435 0.017432082 5.553598e-40
0.96036011 0.39705396 0.018521309 7.3974546e-40
0.95775318 0.40121934 0.01773103 4.6352571e-40
0.95949262 0.4073666 0.017541613 4.6352431e-40
0.96018767 0.40763849 0.017583825 5.5571433e-40
0.95898807 0.41272932 0.01708629 3.7097275e-40
0.96039069 0.41210973 0.01948794 5.5536121e-40
0.95900488 0.41792294 0.01674648 2.7913445e-40
0.96053982 0.41669357 0.018885456 3.7132728e-40
0.95846057 0.42237353 0.017683009 2.7877712e-40
0.9613772 0.42429733 0.019919515 2.7877572e-40
0.95937181 0.4281821 0.016655214 2.7913165e-40
0.96071184 0.4282198 0.017015427 2.7913165e-40
0.95875025 0.43255538 0.016737109 2.7877712e-40
0.9620437 0.43303579 0.019108122 2.7877572e-40
0.9549948 0.43932313 0.019829899 9.4025726e-41
0.95678806 0.43808368 0.01787257 1.8657729e-40
0.96120453 0.43737167 0.018698663 9.4025726e-41
0.95431542 0.44327849 0.016925626 1.8693041e-40
0.95609123 0.44124895 0.016990703 1.8657308e-40
0.96037793 0.44037002 0.019621581 9.4025726e-41
0.95638275 0.44821042 0.018175688 1.8314971e-42
0.95629114 0.45314574 0.017378448 2.5391528e-42
0.95768154 0.45867044 0.018353716 1.8202867e-42
0.95762712 0.46313292 0.017699499 1.821688e-42
0.95489049 0.46571702 0.018113583 2.906293e-42
0.95773268 0.46857494 0.016659304 1.821688e-42
0.95751476 0.47294575 0.017588379 1.4559491e-42
0.95679891 0.4778209 0.017293971 1.4587517e-42
0.95658064 0.48073912 0.01755612 1.460153e-42
0.95817322 0.39252779 0.024029151 4.6316838e-40
0.96034259 0.39007115 0.024750978 5.5571994e-40
0.95893502 0.39803919 0.022452438 4.635187e-40
0.9584012 0.40245777 0.022937469 3.7133008e-40
0.95853865 0.40659767 0.023162682 4.6316137e-40
0.95807874 0.41150537 0.022812746 3.7132307e-40
0.96153337 0.41278264 0.022490293 3.7132588e-40
0.95984668 0.41579252 0.021613389 4.635187e-40
0.96133745 0.41808432 0.022630341 2.7913305e-40
0.95959783 0.42260259 0.022150159 2.7877432e-40
0.9611975 0.42171901 0.023485344 2.7877572e-40
0.96175927 0.42725396 0.022517771 2.7877292e-40
0.95938087 0.4343791 0.023423985 9.4380254e-41
0.96133184 0.43181664 0.022761118 1.8658009e-40
0.95735234 0.43794852 0.022462752 1.8314971e-42
0.96258432 0.43582332 0.020227641 1.8328984e-42
0.95439708 0.44180369 0.020774763 2.1804204e-42
0.95730793 0.44297892 0.022957662 2.1846243e-42
0.95795715 0.44819292 0.022720193 2.5433567e-42
0.95853919 0.45401901 0.022885248 1.8202867e-42
0.95793414 0.45653814 0.022780219 1.8202867e-42
0.95825398 0.46257347 0.022401085 1.460153e-42
0.96089673 0.46418214 0.024404496 1.460153e-42
0.95792627 0.46693382 0.023089796 1.4573504e-42
0.96039176 0.46569717 0.024687141 1.460153e-42
0.95924067 0.47335601 0.021585185 1.4545478e-42
0.96148634 0.47283086 0.024182882 1.460153e-42
0.95912242 0.47836357 0.020796135 7.4689208e-43
0.9621489 0.47803143 0.023130484 1.460153e-42
0.95836085 0.48064852 0.021222383 3.9376487e-43
0.96444237 0.48175001 0.022532374 1.460153e-42
0.96515828 0.48171359 0.024006784 1.098618e-42
0.96876168 0.37224168 0.028299695 9.2568375e-41
0.97049743 0.37075704 0.028972112 0
0.95935053 0.3927089 0.026667818 3.7097275e-40
0.96144152 0.39235148 0.027842101 2.7949599e-40
0.95906919 0.39591968 0.027264625 3.7097275e-40
0.96127748 0.39875573 0.026950134 3.7096855e-40
0.95933849 0.40301329 0.026650095 3.7097135e-40
0.96049112 0.40230173 0.02844426 3.7097275e-40
0.95961595 0.4064402 0.027783714 2.7877151e-40
0.96261537 0.40960622 0.026933968 3.7097275e-40
0.96289235 0.4128364 0.027535554 2.7913165e-40
0.96312737 0.4171927 0.027267776 2.7913025e-40
0.96323997 0.42130908 0.027170589 2.7877712e-40
0.96592122 0.42406619 0.029277585 1.8622136e-40
0.96367353 0.42717451 0.026060555 1.8657588e-40
0.96596634 0.42795247 0.027836844 1.8622136e-40
0.95998544 0.43465889 0.026191473 9.5082305e-41
0.96282691 0.43272913 0.027388966 9.4734783e-41
0.96631354 0.43098736 0.028768858 9.4737585e-41
0.9585889 0.43730268 0.025599912 9.473198e-41
0.96121216 0.43831405 0.02802965 9.4734783e-41
0.95890284 0.44329068 0.026591267 9.437605e-41
0.96152878 0.44272289 0.027873328 2.5391528e-42
0.95973027 0.44853282 0.025507122 1.8328984e-42
0.96106887 0.447972 0.02782627 2.1776178e-42
0.95847732 0.45229197 0.026208401 1.8202867e-42
0.96100473 0.45389351 0.027962849 1.8202867e-42
0.9588235 0.45815235 0.027154157 1.1056245e-42
0.96045244 0.45589679 0.028579449 7.5389857e-43
0.95963472 0.46398944 0.026564375 1.460153e-42
0.96246362 0.46302599 0.028337792 1.460153e-42
0.96199036 0.46729362 0.02822227 1.1042232e-42
0.96281672 0.47271961 0.027715152 1.460153e-42
0.96351749 0.47791895 0.028155042 7.3988559e-43
0.96512878 0.47995275 0.027367979 1.098618e-42
0.96156526 0.48048547 0.02782169 7.3848429e-43
0.96561897 0.48244292 0.025624022 1.1000193e-42
0.97422826 0.36767533 0.034087516 0
0.9755013 0.36998355 0.031336084 0
0.96887994 0.37101626 0.032031797 2.8025969e-45
0.97211534 0.37198907 0.032972392 0
0.97530544 0.37192792 0.032650359 0
0.96190643 0.39247423 0.031423111 3.7097275e-40
0.9659065 0.39368424 0.032189138 4.6352571e-40
0.95970905 0.39805609 0.030508317 3.7097275e-40
0.96267903 0.39808294 0.032294724 3.7097275e-40
0.96585858 0.39586282 0.034022883 4.6316698e-40
0.95931745 0.40024489 0.031627931 3.7097275e-40
0.96239674 0.40370613 0.032455102 2.7877712e-40
0.96530235 0.40261853 0.033864349 4.6316838e-40
0.96183336 0.40556622 0.032505453 2.7877712e-40
0.9657864 0.40895861 0.033032566 3.7097275e-40
0.9641428 0.41157085 0.031893279 3.7097275e-40
0.96534204 0.41165572 0.03449256 3.7097275e-40
0.96446556 0.41628858 0.03177483 2.7912744e-40
0.96553528 0.41665217 0.033102427 2.7912604e-40
0.96456498 0.42249641 0.03250977 1.8657448e-40
0.96551943 0.42059183 0.032827199 1.8658009e-40
0.963732 0.42915446 0.032928724 1.8693041e-40
0.96572387 0.42775151 0.032134585 1.8657448e-40
0.96283954 0.43242556 0.032459367 2.5391528e-42
0.96252942 0.43730384 0.032232031 2.5391528e-42
0.96208173 0.44229403 0.032396637 2.1804204e-42
0.96690577 0.44151604 0.034377959 2.1804204e-42
0.95937204 0.44670451 0.030610293 2.5265411e-42
0.96287459 0.44794187 0.032846849 1.8244906e-42
0.96159017 0.45199925 0.032499641 1.1056245e-42
0.96052802 0.45766726 0.032305405 1.1000193e-42
0.96210825 0.46386361 0.03165853 1.460153e-42
0.9651463 0.46396589 0.033156246 1.460153e-42
0.96346205 0.46727866 0.032553129 1.1014206e-42
0.96417421 0.4735035 0.032099415 1.1000193e-42
0.96522892 0.47180614 0.032811835 7.4549078e-43
0.96425986 0.47835177 0.031597905 7.3848429e-43
0.96537852 0.47779569 0.033458523 7.3988559e-43
0.96370161 0.48037681 0.032221224 3.7835059e-43
0.96688038 0.36928523 0.038753673 2.7731837e-40
0.97318834 0.36907706 0.036468215 0
0.97525966 0.36762285 0.03621158 0
0.95676696 0.37010956 0.039395332 8.3229702e-40
0.96492845 0.37104964 0.039952666 1.0173987e-39
0.96895486 0.37125742 0.036143854 8.4077908e-45
0.97314537 0.37057376 0.036044531 0
0.96471721 0.39110363 0.039861843 4.635187e-40
0.96545285 0.39366698 0.038699161 3.7132307e-40
0.96421432 0.39840907 0.037810259 2.7913025e-40
0.96631956 0.39753199 0.036475256 3.7132447e-40
0.96451604 0.40294331 0.037484732 2.7877712e-40
0.96575731 0.40247735 0.037688591 2.7877572e-40
0.96419907 0.40593052 0.037808008 2.7877712e-40
0.96500784 0.40554154 0.035840124 3.7097275e-40
0.96648216 0.4123272 0.037488308 1.8657729e-40
0.96461678 0.41993606 0.035332114 3.7097275e-40
0.96636403 0.41838509 0.037631925 9.4381655e-41
0.96466827 0.42285752 0.03803473 1.8622136e-40
0.96554983 0.42292365 0.037455294 9.4377452e-41
0.96426344 0.42847055 0.037180156 9.4378853e-41
