# .PCD v0.7 - Point Cloud Data file format
VERSION 0.7
FIELDS x y z rgb
SIZE 4 4 4 4
TYPE F F F F
COUNT 1 1 1 1
WIDTH 973
HEIGHT 1
VIEWPOINT 0 0 0 1 0 0 0
POINTS 973
DATA ascii
0.71028537 0.082006738 -0.1251374 1.0964788e-38
0.71793967 0.082551397 -0.12787111 1.6491503e-38
0.72125483 0.082239188 -0.12615831 1.2716486e-38
0.72805148 0.083234876 -0.126452 1.3545922e-38
0.73254746 0.082680218 -0.12745593 1.445996e-38
0.73764819 0.082664467 -0.12720761 1.4374595e-38
0.74911988 0.081569575 -0.12897116 1.5001595e-38
0.7535761 0.081320494 -0.12854072 1.6205211e-38
0.7559998 0.083577454 -0.128916 1.3919026e-38
0.76353133 0.081058532 -0.12901609 1.5285752e-38
0.76810682 0.081769571 -0.12735321 1.3630908e-38
0.77190745 0.082979053 -0.12542544 1.1331412e-38
0.77806151 0.084364727 -0.12838861 1.3269685e-38
0.78310388 0.082792573 -0.12772548 1.3454085e-38
0.78760862 0.082489438 -0.12653241 1.2620356e-38
0.79329878 0.083865255 -0.12599751 1.18835e-38
0.79693717 0.08313226 -0.12611862 1.2622144e-38
0.8030507 0.082200542 -0.12651408 1.2805818e-38
0.80794007 0.082870081 -0.12578584 1.1699459e-38
0.81305259 0.082432017 -0.12589023 1.1145928e-38
0.81760114 0.082670949 -0.12630266 1.0776791e-38
0.82308364 0.082533658 -0.12712067 1.216081e-38
0.82834637 0.082619205 -0.12747136 1.4743025e-38
0.8327986 0.082806021 -0.12640814 1.5757167e-38
0.83764845 0.082566641 -0.1259937 1.5664612e-38
0.84205735 0.083467767 -0.1257955 1.5664254e-38
0.84734058 0.083417706 -0.12533712 1.5664622e-38
0.70417273 0.086343005 -0.12831703 1.2443893e-38
0.70686281 0.085259758 -0.12718324 1.0782567e-38
0.71219504 0.085586555 -0.12728626 5.3387075e-39
0.71769029 0.086699054 -0.12742747 9.028311e-39
0.72148997 0.088102005 -0.12671445 9.7651599e-39
0.72833389 0.086928919 -0.1260476 1.0963e-38
0.73299921 0.08674264 -0.12702645 1.0317985e-38
0.73744369 0.08802598 -0.12690097 8.1063743e-39
0.74181485 0.088091612 -0.12578711 8.1078036e-39
0.74762803 0.088007845 -0.12682423 8.0141731e-39
0.75279301 0.088319443 -0.12703693 8.2914802e-39
0.75708747 0.087979868 -0.12652133 8.9346888e-39
0.76274705 0.087706044 -0.12710604 8.9364895e-39
0.76782608 0.087450147 -0.12728742 9.2119974e-39
0.77292275 0.087080978 -0.12684503 9.9495666e-39
0.77717316 0.087798767 -0.12748896 9.2127078e-39
0.78262436 0.087817177 -0.1273884 9.3963858e-39
0.78730381 0.087571971 -0.12762338 1.0777869e-38
0.79229867 0.087656945 -0.1278123 1.1515434e-38
0.79733533 0.087710246 -0.12741959 1.1055174e-38
0.80271709 0.087623619 -0.12722561 1.0133941e-38
0.80766284 0.087193042 -0.12753044 1.0684947e-38
0.81217927 0.086364157 -0.1274602 1.0410532e-38
0.81779331 0.087105602 -0.12850794 1.4928129e-38
0.82318771 0.086650416 -0.12851304 1.5573141e-38
0.82777965 0.087440029 -0.12855291 1.5572064e-38
0.83226579 0.087112352 -0.12845445 1.5664257e-38
0.83727658 0.086930439 -0.12870355 1.5664257e-38
0.84273994 0.08677604 -0.1280085 1.5664255e-38
0.84716547 0.087794878 -0.1270967 1.557242e-38
0.8524251 0.089005798 -0.12829508 1.5480587e-38
0.72224063 0.090245113 -0.12751752 7.1869515e-39
0.73863339 0.090129428 -0.12780088 6.8184983e-39
0.74156666 0.090765461 -0.12812805 4.9735277e-39
0.74964887 0.090904869 -0.12902002 5.1582777e-39
0.75264019 0.090945065 -0.12913504 5.0678842e-39
0.75799751 0.090436183 -0.12892315 7.1829873e-39
0.76737905 0.090226337 -0.12937385 7.4573965e-39
0.78297466 0.090265043 -0.12975882 8.1974909e-39
0.78799558 0.090827577 -0.12934074 9.3052608e-39
0.79171324 0.090750538 -0.12894967 9.8562696e-39
0.79660618 0.09098947 -0.12983111 9.7622719e-39
0.8054049 0.090217561 -0.128649 1.4098006e-38
0.84765708 0.090560764 -0.12938589 1.538875e-38
0.85236347 0.090126991 -0.12931627 1.5480587e-38
0.70967871 -0.056051314 -0.12340117 4.9746208e-39
0.71063006 -0.055278145 -0.12338347 4.5187041e-39
0.71693969 -0.05639898 -0.12430844 1.1612703e-38
0.72163528 -0.055131018 -0.12493622 1.786984e-38
0.77876568 -0.05611705 -0.12131382 1.8423197e-38
0.78074473 -0.056807995 -0.12046103 1.5200407e-38
0.79276627 -0.056333333 -0.12288357 1.9342336e-38
0.70907509 -0.05119523 -0.12377207 6.3622566e-39
0.71204054 -0.052612219 -0.12275402 8.7571779e-39
0.71725714 -0.05250736 -0.12309368 1.4474771e-38
0.72222072 -0.052558716 -0.12344566 1.4753141e-38
0.72728825 -0.052321844 -0.12384273 1.6318299e-38
0.73264241 -0.051357843 -0.12460117 1.6320112e-38
0.73782557 -0.05175595 -0.12366407 1.7240259e-38
0.74160028 -0.052462678 -0.12368504 1.7882019e-38
0.74679869 -0.050665103 -0.12452966 2.2308474e-38
0.75160408 -0.05029276 -0.12489069 2.3509886e-38
0.77285546 -0.051583756 -0.12309029 2.3508442e-38
0.77755475 -0.05246092 -0.12142914 2.331611e-38
0.78181255 -0.052121788 -0.12036631 2.2301239e-38
0.78908962 -0.050937057 -0.12209482 2.2831315e-38
0.79203671 -0.052632578 -0.12202305 2.1547105e-38
0.83294022 -0.050023288 -0.1248422 2.348205e-38
0.84807754 -0.051296528 -0.12351113 1.6583681e-38
0.70917726 -0.047364924 -0.12368788 7.0069001e-39
0.71217918 -0.047664031 -0.12249474 1.0137947e-38
0.71832567 -0.04745828 -0.12330712 1.8162937e-38
0.72242123 -0.04688644 -0.12277632 1.8255496e-38
0.72737825 -0.047938418 -0.12287771 1.8438437e-38
0.73290819 -0.047206383 -0.12243003 2.101666e-38
0.73673981 -0.047335919 -0.12218429 2.1478356e-38
0.74365997 -0.047967307 -0.12396067 2.175458e-38
0.7485041 -0.047375809 -0.12292108 2.3138941e-38
0.75203395 -0.047390956 -0.12195797 2.3507723e-38
0.75786793 -0.04711505 -0.12406047 2.3416249e-38
0.76374179 -0.047138721 -0.12307049 2.350916e-38
0.77307963 -0.047816407 -0.12297592 2.2490319e-38
0.77739477 -0.047902182 -0.12144542 2.3507358e-38
0.7819978 -0.047649093 -0.12042394 2.3508794e-38
0.78806347 -0.0479539 -0.12188791 2.3211954e-38
0.79169768 -0.047021836 -0.12142061 2.274519e-38
0.81229919 -0.048959177 -0.12418924 2.2378225e-38
0.81723934 -0.047341496 -0.12298574 2.1734983e-38
0.82590032 -0.045366645 -0.12361386 1.9164794e-38
0.83229339 -0.047315132 -0.12446064 2.2378578e-38
0.8351084 -0.045255482 -0.12464783 2.0357146e-38
0.8438971 -0.048873156 -0.12458467 2.0625858e-38
0.84758252 -0.047168549 -0.12399378 1.5940478e-38
0.85093236 -0.047128417 -0.12306167 1.6033758e-38
0.7086615 -0.042237185 -0.1230436 8.2036398e-39
0.71259665 -0.04250304 -0.12237383 1.1887135e-38
0.71758044 -0.042177763 -0.12368545 1.8344802e-38
0.72221637 -0.042263761 -0.12314088 2.0280896e-38
0.72797096 -0.042826917 -0.12280552 2.1663103e-38
0.73253495 -0.042213596 -0.12230633 2.2768365e-38
0.73652554 -0.042408902 -0.12206385 2.3322971e-38
0.7426095 -0.041524991 -0.1239832 2.3509165e-38
0.74702454 -0.042462651 -0.12452796 2.3509524e-38
0.75233096 -0.042209584 -0.1232141 2.3136774e-38
0.75680226 -0.042944957 -0.12425663 2.3416968e-38
0.76288146 -0.043010097 -0.12461074 2.2859472e-38
0.76825595 -0.042272076 -0.12227756 2.3412644e-38
0.77283746 -0.042666715 -0.12194391 2.3226451e-38
0.77756929 -0.042456403 -0.12116169 2.3508441e-38
0.78240788 -0.04243473 -0.12071542 2.3414805e-38
0.78751063 -0.041743927 -0.12170522 2.3509883e-38
0.79184753 -0.042497128 -0.12175262 2.3037344e-38
0.79764336 -0.042510524 -0.12250777 2.2667852e-38
0.8023836 -0.042023238 -0.12261558 2.0632719e-38
0.80697101 -0.040691778 -0.12306133 2.2197504e-38
0.81391388 -0.041220963 -0.12440661 2.3123763e-38
0.81724995 -0.042769372 -0.12372774 1.879281e-38
0.82244033 -0.042312477 -0.12397809 1.7689336e-38
0.82696676 -0.042225681 -0.12387811 1.713797e-38
0.83161813 -0.041859038 -0.12348159 1.6400766e-38
0.84971523 -0.043475997 -0.1237522 1.6033759e-38
0.70822233 -0.037696887 -0.12408295 8.7564451e-39
0.71251839 -0.037161291 -0.12258971 1.2807275e-38
0.71679914 -0.037071522 -0.12262909 2.0093628e-38
0.72143298 -0.037587263 -0.12340133 1.9727725e-38
0.72763169 -0.037282892 -0.12318257 2.2031516e-38
0.73311538 -0.038196918 -0.12323497 2.3508804e-38
0.73726308 -0.037574217 -0.12309413 2.3509524e-38
0.74178988 -0.037802324 -0.12337216 2.3509886e-38
0.74621129 -0.036935579 -0.1243791 2.3509886e-38
0.75329822 -0.037368424 -0.1230418 2.2582518e-38
0.75724882 -0.036546957 -0.12234817 2.332188e-38
0.76236135 -0.036583535 -0.12228299 2.3410084e-38
0.76707077 -0.037591845 -0.12312554 2.1100517e-38
0.772286 -0.037552737 -0.12177956 1.9525627e-38
0.77800328 -0.038141962 -0.12196397 2.0912161e-38
0.78249788 -0.037374064 -0.12226941 2.3133874e-38
0.78635806 -0.036617529 -0.12138861 2.3509521e-38
0.79250133 -0.037798669 -0.12266077 2.3509524e-38
0.79783559 -0.037511706 -0.12313498 2.3509163e-38
0.8027193 -0.037598222 -0.12329836 2.3505913e-38
0.80762351 -0.037663862 -0.1234403 2.3504108e-38
0.81213635 -0.037174977 -0.12374127 2.3501601e-38
0.81698531 -0.03789952 -0.12407732 2.3220333e-38
0.82303715 -0.037714459 -0.12456524 2.1467871e-38
0.82789421 -0.037485328 -0.12376781 2.1097328e-38
0.83180517 -0.036874961 -0.12247598 2.119349e-38
0.84578514 -0.037006408 -0.1249837 1.6856312e-38
0.71236664 -0.032357205 -0.12318583 1.3728146e-38
0.71768713 -0.032214019 -0.12299368 2.1753498e-38
0.72283173 -0.032576729 -0.12347113 2.1202841e-38
0.72718346 -0.032222785 -0.12333717 2.2217349e-38
0.73209113 -0.03261188 -0.12393726 2.2954189e-38
0.73740059 -0.032420587 -0.12380544 2.3509524e-38
0.74183697 -0.032230496 -0.12281752 2.3509886e-38
0.74705774 -0.03315293 -0.12422583 2.3509886e-38
0.75242609 -0.032549046 -0.12423527 2.3136047e-38
0.75681543 -0.032819655 -0.1224459 2.2485269e-38
0.7626338 -0.033334911 -0.12233844 2.2489952e-38
0.76687425 -0.03296043 -0.12189496 2.1464238e-38
0.77282971 -0.032670639 -0.12112141 1.9979009e-38
0.77891564 -0.031925239 -0.12245172 2.2659204e-38
0.78304386 -0.033086121 -0.12237027 2.3322968e-38
0.7875886 -0.032920234 -0.1221742 2.2861272e-38
0.79307711 -0.032451801 -0.12324376 2.3042781e-38
0.79685885 -0.031990331 -0.12258021 2.3136777e-38
0.80197644 -0.032045715 -0.12269649 2.3509164e-38
0.80729884 -0.032737218 -0.12321144 2.3505561e-38
0.81246006 -0.033201057 -0.12362874 2.3315771e-38
0.81745684 -0.032462902 -0.12454701 2.3224291e-38
0.82288265 -0.032588013 -0.12446323 2.3501939e-38
0.82796365 -0.032845408 -0.12434082 2.2758976e-38
0.83226049 -0.032762539 -0.12257496 2.1743751e-38
0.83530158 -0.031433865 -0.12185754 2.2201807e-38
0.84724635 -0.032522868 -0.12436835 1.5754651e-38
0.70939291 -0.027267091 -0.12377642 1.0872958e-38
0.71140337 -0.02751762 -0.12245321 1.4464627e-38
0.71797383 -0.028093543 -0.12303954 2.3230776e-38
0.72275287 -0.027634744 -0.12264861 2.3508804e-38
0.72715712 -0.028124882 -0.12257966 2.3509886e-38
0.73410755 -0.027078301 -0.12464261 2.3509884e-38
0.73744565 -0.027675891 -0.12386382 2.3509884e-38
0.74146211 -0.027329758 -0.12299463 2.341588e-38
0.74664402 -0.027966013 -0.12381506 2.2675768e-38
0.75322562 -0.028360648 -0.12444349 2.3140023e-38
0.75678188 -0.027628614 -0.12428787 2.23023e-38
0.76814187 -0.027204877 -0.12031185 2.2201813e-38
0.77263588 -0.027251568 -0.12153684 2.1086438e-38
0.77743936 -0.027125642 -0.1214366 2.2196402e-38
0.78231597 -0.027336463 -0.12122945 2.3128119e-38
0.78615212 -0.029657573 -0.122109 2.1011226e-38
0.7926029 -0.02725493 -0.12409785 2.3509164e-38
0.79718107 -0.027546747 -0.12345247 2.3319001e-38
0.8020938 -0.027322464 -0.12273259 2.3229327e-38
0.80688536 -0.027285168 -0.12249636 2.3506279e-38
0.81208545 -0.027267694 -0.12322967 2.3501601e-38
0.81758142 -0.026983326 -0.12415557 2.2668227e-38
0.82254887 -0.028275173 -0.1241331 2.2297271e-38
0.82842618 -0.027650289 -0.1244738 2.1928131e-38
0.83246422 -0.027494898 -0.12399089 2.1651908e-38
0.83696651 -0.027736086 -0.12400466 2.2021429e-38
0.84209085 -0.026684262 -0.12435567 1.9900212e-38
0.84677672 -0.027978029 -0.12362927 1.6307102e-38
0.70903426 -0.02297109 -0.12432319 1.0872959e-38
0.711806 -0.022191236 -0.12246203 1.5294382e-38
0.71814841 -0.023027999 -0.12396425 2.3138582e-38
0.72227335 -0.022345917 -0.12305897 2.3508441e-38
0.72718292 -0.022312069 -0.12326472 2.3509884e-38
0.73290402 -0.022235377 -0.12372626 2.3509525e-38
0.73735994 -0.022442585 -0.12382132 2.3509886e-38
0.74241954 -0.02267083 -0.1235281 2.3509881e-38
0.74592966 -0.022525299 -0.12205297 2.2487026e-38
0.75198215 -0.021913599 -0.12171061 2.2942281e-38
0.75756115 -0.022306725 -0.124405 2.2949132e-38
0.76215965 -0.021546973 -0.12452488 2.3509886e-38
0.76773965 -0.022722227 -0.12240689 2.3504842e-38
0.77264589 -0.023175035 -0.12232216 2.1644673e-38
0.77718085 -0.022324124 -0.12188949 2.1181904e-38
0.78226972 -0.022525908 -0.12135832 2.3318997e-38
0.78673095 -0.021103293 -0.12189752 2.2303054e-38
0.79233187 -0.022579536 -0.12309337 2.3507363e-38
0.79888713 -0.023137465 -0.12400547 2.3413363e-38
0.8022331 -0.022364395 -0.12332966 2.3225366e-38
0.80781311 -0.02261419 -0.12338076 2.3412281e-38
0.81266135 -0.022602908 -0.12365803 2.3505557e-38
0.81707251 -0.022132654 -0.12325129 2.2947696e-38
0.82258564 -0.022373386 -0.12370251 2.2485635e-38
0.82797402 -0.022213366 -0.1240991 2.2941572e-38
0.83307087 -0.024032524 -0.12444776 2.349327e-38
0.83723277 -0.022391634 -0.12430089 2.2388023e-38
0.84300703 -0.022827348 -0.1237018 1.8148854e-38
0.84516859 -0.023791611 -0.12321469 1.5938315e-38
0.7096113 -0.017979056 -0.12473132 1.1888185e-38
0.71185607 -0.017314864 -0.12250748 1.6032302e-38
0.71790612 -0.0176764 -0.12330861 2.3508084e-38
0.7223345 -0.01724649 -0.1230172 2.3415525e-38
0.72744143 -0.017760908 -0.12334562 2.3508802e-38
0.73253441 -0.017413544 -0.12323958 2.3509524e-38
0.73741436 -0.017834684 -0.12260697 2.3509884e-38
0.74224222 -0.01741964 -0.12204234 2.304709e-38
0.74782813 -0.018190153 -0.12222072 2.3508051e-38
0.7539109 -0.018234044 -0.12157717 2.1924536e-38
0.75790042 -0.017213905 -0.12420087 2.2952738e-38
0.76264274 -0.01784483 -0.12405437 2.3509525e-38
0.76746118 -0.017992698 -0.12207568 2.1006169e-38
0.77290654 -0.017683338 -0.12137914 2.0347808e-38
0.7778486 -0.017127313 -0.12223616 2.1183287e-38
0.78242689 -0.017523749 -0.12267897 2.3410458e-38
0.78716302 -0.01750334 -0.1215446 2.3129897e-38
0.79160327 -0.017179836 -0.12201738 2.3505184e-38
0.79745626 -0.017642006 -0.12318452 2.3508077e-38
0.80198669 -0.017085344 -0.12311047 2.3411921e-38
0.80747443 -0.017498106 -0.12361415 2.322393e-38
0.81352937 -0.018222768 -0.12395835 2.3412641e-38
0.81732786 -0.017290015 -0.1234905 2.3037012e-38
0.82240784 -0.017494971 -0.1240986 2.3312482e-38
0.82623661 -0.018239617 -0.1245094 2.3409376e-38
0.83268952 -0.017108511 -0.12471098 2.3502303e-38
0.83702844 -0.017443463 -0.12399056 2.3129207e-38
0.84286594 -0.018069569 -0.12392088 1.8517997e-38
0.84747422 -0.017696302 -0.12383664 1.593976e-38
0.85311806 -0.017403334 -0.12487113 1.6676964e-38
0.70971316 -0.014734606 -0.12329814 1.4283103e-38
0.71236813 -0.012823615 -0.12235852 1.7139007e-38
0.71706176 -0.012461244 -0.12184605 2.3509158e-38
0.72285795 -0.011819863 -0.12313717 2.3508439e-38
0.72783697 -0.012508616 -0.12432025 2.350952e-38
0.73197263 -0.012276435 -0.12372149 2.3509523e-38
0.73703241 -0.012611751 -0.12266983 2.3509886e-38
0.74304271 -0.012329829 -0.12171258 2.3509511e-38
0.74765712 -0.012218314 -0.12011661 2.2585742e-38
0.75330669 -0.011455208 -0.12258232 2.2579265e-38
0.75683278 -0.012338331 -0.12311368 2.1934972e-38
0.76324648 -0.013315707 -0.12215181 2.1284186e-38
0.76783115 -0.012115271 -0.12062014 2.1644623e-38
0.77213615 -0.012062773 -0.12055974 2.2941532e-38
0.77546889 -0.011295319 -0.12062518 2.3504835e-38
0.78342152 -0.01287458 -0.1226368 2.2948776e-38
0.78677922 -0.01254989 -0.12166823 2.3509158e-38
0.79276413 -0.013059813 -0.12285632 2.3509158e-38
0.79727405 -0.012711111 -0.12297644 2.3508795e-38
0.80256337 -0.0124044 -0.12290305 2.350627e-38
0.80784506 -0.012293018 -0.1234142 2.331648e-38
0.81250459 -0.012751475 -0.12341225 2.331792e-38
0.81595135 -0.012308851 -0.12300245 2.3313234e-38
0.82202691 -0.012518048 -0.12414733 2.3503396e-38
0.82805777 -0.013591886 -0.12486595 2.3503391e-38
0.83376825 -0.012619078 -0.12462552 2.3125958e-38
0.83726645 -0.012491995 -0.12417942 2.3220676e-38
0.84243745 -0.013423434 -0.12460352 2.1559721e-38
0.85269308 -0.013042152 -0.12465578 1.6584416e-38
0.71260083 -0.0073104762 -0.12276614 1.6860975e-38
0.71765763 -0.0073902481 -0.12218431 2.35088e-38
0.72160345 -0.0078982413 -0.12279344 2.35088e-38
0.72792482 -0.0075242338 -0.12447235 2.3509521e-38
0.73202848 -0.0072834818 -0.12359041 2.3509524e-38
0.73726249 -0.0068918383 -0.12315774 2.3509165e-38
0.74412364 -0.0084856302 -0.12300291 2.3508802e-38
0.7473408 -0.0075619076 -0.12244823 2.3415877e-38
0.75196391 -0.0074763061 -0.12206095 2.2954538e-38
0.75717032 -0.0073170573 -0.12156677 2.3507716e-38
0.76174992 -0.0082711643 -0.12070276 2.2486709e-38
0.76804578 -0.0078237057 -0.1215788 2.3509858e-38
0.77240074 -0.0072417855 -0.12112221 2.3228976e-38
0.77748394 -0.007481616 -0.12097611 2.3135326e-38
0.78240108 -0.0084505081 -0.12131705 2.2671447e-38
0.7870034 -0.0081629902 -0.12202464 2.3508438e-38
0.79251945 -0.0072214305 -0.12268882 2.3509158e-38
0.79732919 -0.0075418539 -0.12166759 2.3508077e-38
0.80380577 -0.0073785484 -0.1230263 2.3507359e-38
0.80721754 -0.0080188308 -0.1239114 2.3506996e-38
0.81275487 -0.0075816722 -0.12359244 2.3504834e-38
0.81695187 -0.007091485 -0.12251801 2.3506279e-38
0.82238531 -0.007185109 -0.12363277 2.3503758e-38
0.82731861 -0.0072314623 -0.12413277 2.3316478e-38
0.83210814 -0.0077576046 -0.12396298 2.349834e-38
0.83631569 -0.0072256159 -0.1233385 2.3500863e-38
0.70800412 -0.0015987387 -0.12430905 1.1332846e-38
0.71206534 -0.0022697325 -0.12271696 1.6214884e-38
0.71802282 -0.0022571278 -0.12266576 2.3323688e-38
0.72168064 -0.0022314142 -0.12287506 2.3508439e-38
0.72746515 -0.0024798489 -0.12430071 2.3509523e-38
0.73251975 -0.0020409003 -0.1236105 2.3509521e-38
0.73731542 -0.0023427592 -0.12260634 2.3509523e-38
0.74136543 -0.0030987205 -0.12310632 2.3509163e-38
0.74797183 -0.0032655399 -0.12122593 2.350736e-38
0.75193959 -0.0024446819 -0.12453755 2.2857632e-38
0.75859708 -0.0025838166 -0.12244093 2.129216e-38
0.76198447 -0.0019093093 -0.12153946 1.7683899e-38
0.76712185 -0.0028497535 -0.12363407 2.2118672e-38
0.77246362 -0.0030449666 -0.12175326 1.9531421e-38
0.77781361 -0.0024356495 -0.12095287 2.3508442e-38
0.78098643 -0.0017204385 -0.12033027 2.3507719e-38
0.78830403 -0.0036068261 -0.12290108 2.3508441e-38
0.79219168 -0.0021202245 -0.12208034 2.350916e-38
0.79744995 -0.0026125573 -0.12117615 2.3508078e-38
0.80300921 -0.0023900867 -0.12250027 2.3507352e-38
0.80744213 -0.0026328624 -0.12324689 2.3505917e-38
0.81277239 -0.003202115 -0.12423481 2.3504114e-38
0.81726086 -0.0028751716 -0.12393188 2.3408678e-38
0.82239473 -0.0020516894 -0.12395176 2.3407232e-38
0.82765484 -0.002524402 -0.1240792 2.3406876e-38
0.83249074 -0.0025985043 -0.12396419 2.3312877e-38
0.83697981 -0.0020530701 -0.12320279 2.3039171e-38
0.84272981 -0.0009362027 -0.12300497 1.6028712e-38
0.84637016 -0.00038555264 -0.12402104 1.5661738e-38
0.8517496 -0.0018791109 -0.12382211 1.6492572e-38
0.70893931 0.0031100691 -0.12374195 1.1330325e-38
0.71235514 0.0025144035 -0.12233474 1.7690379e-38
0.71728867 0.002664967 -0.12220638 2.3508438e-38
0.72230792 0.0025123316 -0.12283002 2.3507718e-38
0.72760665 0.0021208951 -0.12386532 2.3508077e-38
0.73302865 0.0026842589 -0.12262063 2.3508438e-38
0.73562986 0.0013215303 -0.12065575 2.3509156e-38
0.74940252 0.00230252 -0.12458489 2.3509525e-38
0.75226861 0.0027454812 -0.12318309 2.2218061e-38
0.75776953 0.0024897954 -0.1229521 2.1010172e-38
0.76221257 0.0026001234 -0.1223081 1.7672743e-38
0.76757538 0.0023067098 -0.12249333 1.5822039e-38
0.77134037 0.0023691356 -0.12048648 1.5448129e-38
0.77725178 0.0026163098 -0.12174007 2.249176e-38
0.78157133 0.0029320419 -0.12141168 2.2212674e-38
0.78783399 0.0026478097 -0.12241116 1.8707092e-38
0.79248697 0.0027044986 -0.12139545 2.0922658e-38
0.79764527 0.0022115069 -0.12155303 2.3509161e-38
0.80207461 0.0027784493 -0.12248549 2.3508438e-38
0.80709416 0.0021421954 -0.12296312 2.3506636e-38
0.81274933 0.0029175333 -0.12371864 2.3411191e-38
0.81750411 0.002852882 -0.12423486 2.321959e-38
0.82276624 0.0023952809 -0.12434997 2.3503036e-38
0.82774258 0.0013220807 -0.12466293 2.3319008e-38
0.83460063 0.00095590949 -0.12440921 2.2205455e-38
0.83802164 0.0012041405 -0.12389037 2.2574595e-38
0.84221429 0.0018582046 -0.12452577 2.0455541e-38
0.84743381 0.0028461739 -0.12464734 1.6030511e-38
0.85221541 0.0031156805 -0.12399846 1.6492928e-38
0.70887715 0.0080159623 -0.1238759 1.0868989e-38
0.71247995 0.0076364526 -0.1223347 1.8427581e-38
0.71717793 0.0073710843 -0.12168334 2.3508438e-38
0.72264796 0.0080202548 -0.1240762 2.3507358e-38
0.72739518 0.0071161166 -0.12403067 2.3507716e-38
0.73203737 0.0073371455 -0.12264039 2.3508079e-38
0.73679841 0.0070342124 -0.12259856 2.3508439e-38
0.74268746 0.0092192739 -0.12019892 2.2112906e-38
0.75349444 0.0075668395 -0.12325571 1.3901765e-38
0.75756913 0.0071502463 -0.12152362 1.7395461e-38
0.76244366 0.0065294043 -0.12129018 1.6757625e-38
0.76696706 0.0089884549 -0.12058857 1.8511184e-38
0.77158189 0.0072503313 -0.12137912 1.6105773e-38
0.77796382 0.0079580313 -0.12246104 1.9619667e-38
0.78262794 0.0075979284 -0.12215251 2.0631633e-38
0.78794587 0.0075604753 -0.12138734 2.0636714e-38
0.7918312 0.0074079139 -0.12106316 1.9251267e-38
0.79750836 0.0077646547 -0.12241084 2.2765471e-38
0.80282766 0.0074302587 -0.12231351 2.3506636e-38
0.80700761 0.0076026083 -0.12235662 2.3505917e-38
0.81203246 0.0078831865 -0.12302537 2.3504095e-38
0.81791753 0.0069614053 -0.12376124 2.3219594e-38
0.82242227 0.0078342222 -0.12380181 2.3038806e-38
0.82721376 0.0077901841 -0.12377524 2.1929938e-38
0.83257705 0.0086409152 -0.12351761 2.2387307e-38
0.8476367 0.0078667803 -0.1245481 1.5939036e-38
0.85392749 0.0058542192 -0.12402299 1.6492571e-38
0.70860195 0.012563623 -0.12409359 9.9491883e-39
0.71173292 0.012656186 -0.12259433 1.6398548e-38
0.71766061 0.012600963 -0.1222929 2.3506995e-38
0.72185099 0.013166712 -0.12227292 2.3505556e-38
0.72764254 0.011881901 -0.12426482 2.3506635e-38
0.7325266 0.012469321 -0.12315873 2.2674716e-38
0.73753011 0.012836901 -0.12261747 1.9810152e-38
0.74132079 0.011694238 -0.12225533 2.1470048e-38
0.75363088 0.012146702 -0.12385125 1.3427093e-38
0.75670713 0.013555318 -0.12477709 1.7003954e-38
0.76229572 0.011281312 -0.12039528 1.4259369e-38
0.7673251 0.012334861 -0.12092483 2.0343893e-38
0.77208835 0.013673611 -0.12161508 1.8951951e-38
0.77796477 0.012328676 -0.12242986 1.9605961e-38
0.78292769 0.012458272 -0.12206267 2.0904259e-38
0.78724885 0.01238205 -0.1210445 1.9617163e-38
0.79255795 0.012711866 -0.12205012 1.8969232e-38
0.79782033 0.01234936 -0.12265967 2.3318282e-38
0.80271637 0.012622627 -0.12309118 2.3505914e-38
0.80682391 0.012676665 -0.12206087 2.3505193e-38
0.81250352 0.01307252 -0.12286454 2.3501944e-38
0.81837577 0.012483656 -0.12472453 2.322464e-38
0.82216197 0.011699872 -0.12432694 2.3504467e-38
0.82750881 0.012432898 -0.12425661 2.3407224e-38
0.83215916 0.012727357 -0.12299126 2.3497264e-38
0.84210676 0.013155836 -0.12479024 2.0916154e-38
0.84735042 0.012881643 -0.12384658 1.5940123e-38
0.85020012 0.01329878 -0.12339737 1.6125596e-38
0.70890218 0.017460445 -0.12438219 1.1422875e-38
0.71204847 0.017395921 -0.12206786 1.7228309e-38
0.71739799 0.017441701 -0.12426545 2.3044577e-38
0.72243041 0.017260361 -0.12190217 2.3504831e-38
0.72768933 0.017968526 -0.12269206 2.3505194e-38
0.73198259 0.01738256 -0.12330257 2.2675063e-38
0.73762101 0.017290672 -0.12164421 1.980439e-38
0.74329555 0.018005574 -0.12204149 2.0726358e-38
0.74686551 0.016044289 -0.12018204 1.9520247e-38
0.75220871 0.016087353 -0.12044252 1.9333681e-38
0.75663072 0.018240824 -0.12101551 1.9795375e-38
0.76349783 0.018124014 -0.12028112 2.1079622e-38
0.76787275 0.018185489 -0.1206641 2.1266174e-38
0.77192795 0.018547282 -0.1207532 2.1370277e-38
0.77751559 0.017625742 -0.12147769 2.1638929e-38
0.7823258 0.017658146 -0.1213078 1.8581691e-38
0.78740966 0.01751278 -0.12161674 1.702447e-38
0.79260838 0.017215101 -0.12203354 1.8964191e-38
0.79594994 0.017556809 -0.12214313 2.2571706e-38
0.80305386 0.017647481 -0.12334859 2.3503754e-38
0.80743581 0.017341658 -0.1221243 2.3504109e-38
0.81388748 0.017308792 -0.12340245 2.3501591e-38
0.81754428 0.017440835 -0.12373465 2.3504833e-38
0.82242745 0.017192025 -0.12361062 2.350663e-38
0.82775688 0.017300671 -0.12394966 2.331395e-38
0.83316463 0.016043872 -0.12387031 2.3496548e-38
0.8355459 0.016106188 -0.12355524 2.3499432e-38
0.84492993 0.016777277 -0.12471345 1.5937234e-38
0.84821337 0.017385196 -0.12393272 1.6033036e-38
0.85054255 0.017166473 -0.12361744 1.6309629e-38
0.70897412 0.022898659 -0.12344458 1.1974244e-38
0.71213859 0.022265606 -0.12187704 1.7596723e-38
0.71723104 0.022316895 -0.12329207 2.3320081e-38
0.72229999 0.022888722 -0.1236872 2.3410836e-38
0.72705567 0.022659622 -0.12385511 2.3503749e-38
0.73192579 0.021669213 -0.12390943 2.2857277e-38
0.73642755 0.021282926 -0.12444034 1.4452252e-38
0.74318975 0.021870475 -0.12308875 2.0082034e-38
0.74741101 0.022496926 -0.12274167 1.9618895e-38
0.7520355 0.021963364 -0.12464929 1.7125989e-38
0.75878531 0.022450557 -0.12075593 2.3127754e-38
0.76264101 0.022273725 -0.12092777 2.3495456e-38
0.76663995 0.02283502 -0.12071629 2.3311071e-38
0.77219719 0.022457523 -0.12069058 2.2941913e-38
0.77808642 0.022533391 -0.12041165 2.3213462e-38
0.78187668 0.022357095 -0.121127 2.2473708e-38
0.78742111 0.022613138 -0.12212861 2.3219954e-38
0.79252809 0.022546044 -0.12202316 2.2665696e-38
0.79745823 0.022684544 -0.12233827 2.3404706e-38
0.80283475 0.022396443 -0.12255214 2.350051e-38
0.80750918 0.022547435 -0.12216519 2.3501591e-38
0.81198692 0.022183966 -0.12257916 2.3501949e-38
0.81801319 0.02239879 -0.12306328 2.3504837e-38
0.82233393 0.022567354 -0.12284045 2.3408305e-38
0.82672691 0.022110924 -0.12333753 2.3315754e-38
0.8316772 0.023756661 -0.12449344 2.3502305e-38
0.83786929 0.020359337 -0.12492213 2.3500514e-38
0.84916025 0.021822985 -0.12429432 1.603232e-38
0.70910966 0.026936546 -0.12372122 1.3543009e-38
0.7126087 0.027626729 -0.12255521 1.8058427e-38
0.71690947 0.027500749 -0.1231566 2.3226439e-38
0.72280633 0.027873432 -0.12364603 2.3409752e-38
0.72756225 0.028278159 -0.12250262 2.3223921e-38
0.73120034 0.028236616 -0.12314495 2.2764023e-38
0.73973197 0.026392266 -0.12032816 1.880035e-38
0.74235022 0.025086969 -0.12480494 2.238877e-38
0.74581593 0.026302427 -0.12259541 2.1747728e-38
0.75322652 0.029281668 -0.120139 2.0544849e-38
0.75777179 0.027848607 -0.12053436 2.0825041e-38
0.76225162 0.027151812 -0.12083693 2.1931379e-38
0.76769471 0.02754629 -0.12119515 2.1468253e-38
0.772268 0.027726894 -0.12051033 2.2665708e-38
0.77704614 0.027990129 -0.12034132 2.1284573e-38
0.7823481 0.028009478 -0.12141538 2.0456256e-38
0.78733569 0.027116077 -0.12271597 2.2666789e-38
0.79182929 0.027419589 -0.12307294 2.1094064e-38
0.79738379 0.0275978 -0.12304809 2.3500145e-38
0.80232859 0.027383257 -0.12282393 2.3499426e-38
0.80697733 0.027289832 -0.12270905 2.3499789e-38
0.8117761 0.027607957 -0.12220477 2.266858e-38
0.81808746 0.028155418 -0.12249322 2.2203988e-38
0.82195294 0.028056987 -0.12260488 2.1654061e-38
0.82791722 0.027730415 -0.12361722 2.183774e-38
0.83352965 0.02789796 -0.12476002 2.1742995e-38
0.8373028 0.028477639 -0.12460724 2.229619e-38
0.70960486 0.03129787 -0.12376871 1.354157e-38
0.71206927 0.032794639 -0.12273552 1.7228305e-38
0.71711755 0.03227818 -0.12377885 2.304061e-38
0.72249508 0.032680482 -0.12426049 2.3133523e-38
0.72805995 0.032475933 -0.12291846 2.2946966e-38
0.73242605 0.032492023 -0.12206575 2.2577108e-38
0.73721975 0.033009045 -0.12196756 2.2297272e-38
0.74159741 0.032770459 -0.12106371 2.2668588e-38
0.75311136 0.031741694 -0.12052887 2.2483485e-38
0.75716895 0.032571569 -0.12084359 2.2113241e-38
0.76272535 0.032693375 -0.12103137 2.2941204e-38
0.76817775 0.032255888 -0.12126617 2.2204011e-38
0.77212888 0.032547604 -0.12108049 2.3126326e-38
0.7773695 0.032576293 -0.12114849 2.164975e-38
0.78315717 0.032456137 -0.12155578 2.1556463e-38
0.78813338 0.03293265 -0.12236585 2.3033046e-38
0.7926771 0.031916972 -0.12297149 2.2572427e-38
0.79787844 0.032484271 -0.12346718 2.3499059e-38
0.80269933 0.032250483 -0.12311886 2.3498702e-38
0.80792558 0.032049701 -0.1228338 2.349798e-38
0.81251287 0.03244872 -0.12263961 2.3497619e-38
0.81860441 0.032502342 -0.1238538 2.3500875e-38
0.82239884 0.03284052 -0.1228617 2.3407222e-38
0.82726336 0.033376902 -0.12350774 2.3501587e-38
0.83107221 0.033173274 -0.12378857 2.3498706e-38
0.83517092 0.031718116 -0.12478346 2.3497972e-38
0.70974249 0.038303927 -0.12428427 1.1790573e-38
0.71176577 0.037626911 -0.12287708 1.6582578e-38
0.71757412 0.037525758 -0.12396769 2.3224636e-38
0.7219888 0.037278518 -0.12370431 2.2855133e-38
0.72781664 0.038114175 -0.12348822 2.294697e-38
0.73220903 0.037572008 -0.12217436 2.3130281e-38
0.73779851 0.036672782 -0.12194054 2.2484197e-38
0.7425015 0.037444904 -0.12069052 2.2385157e-38
0.74618423 0.038170114 -0.12044653 2.2387318e-38
0.75388098 0.036718518 -0.12039447 2.0637058e-38
0.7585814 0.03637011 -0.12153835 2.1192389e-38
0.76299572 0.037120719 -0.12183792 2.2018187e-38
0.76649648 0.03776883 -0.12161914 2.2018181e-38
0.77209491 0.037648857 -0.12179325 2.1649038e-38
0.77828896 0.037194487 -0.12178537 2.1742321e-38
0.78259599 0.036392741 -0.12206081 2.1466086e-38
0.78759241 0.037354719 -0.12238902 2.3219241e-38
0.79193234 0.038099702 -0.12216184 2.349654e-38
0.79759544 0.037422523 -0.12257875 2.3496542e-38
0.80212891 0.037477855 -0.12217484 2.3496541e-38
0.80698735 0.036955055 -0.12247822 2.3496901e-38
0.81185931 0.03723089 -0.12319122 2.3496188e-38
0.81739658 0.037623361 -0.12463453 2.350014e-38
0.8222115 0.037507337 -0.12424559 2.340579e-38
0.82751966 0.037484024 -0.12379842 2.3312518e-38
0.8321541 0.037482005 -0.12348817 2.3404711e-38
0.83771443 0.03825321 -0.12380593 2.146897e-38
0.70886987 0.042932615 -0.12401 1.1605464e-38
0.71206534 0.042574141 -0.12213299 1.8701993e-38
0.71776998 0.042301279 -0.12416011 2.2947692e-38
0.72227001 0.042291857 -0.12301717 2.2761854e-38
0.72762591 0.042300712 -0.12203089 2.2853332e-38
0.7327143 0.042754412 -0.12182439 2.2206164e-38
0.7371853 0.043201558 -0.12234908 2.2205441e-38
0.74139947 0.042266574 -0.12072729 2.2665341e-38
0.74712181 0.043396808 -0.12096546 2.1281338e-38
0.76319396 0.042207807 -0.12180128 2.2199325e-38
0.76750481 0.042303603 -0.1218907 2.2109296e-38
0.77305639 0.042636167 -0.12235085 2.210786e-38
0.77790421 0.041718952 -0.12183284 2.1280968e-38
0.78154165 0.043504149 -0.12229639 2.2291511e-38
0.7876119 0.042605076 -0.12235443 2.2849021e-38
0.79274738 0.042585492 -0.12228228 2.1928502e-38
0.7979933 0.042011093 -0.1226032 2.3034491e-38
0.8023141 0.042499401 -0.12161165 2.3495821e-38
0.80884981 0.042093687 -0.12299243 2.3495454e-38
0.81295693 0.04313935 -0.12410381 2.3492574e-38
0.81737852 0.041586008 -0.12456789 2.3504471e-38
0.82255477 0.042592537 -0.12433195 2.3502309e-38
0.82732141 0.042424291 -0.12391143 2.3313956e-38
0.83215791 0.042503707 -0.12373029 2.3407592e-38
0.83705962 0.042325862 -0.12378626 2.2115783e-38
0.8407644 0.042517852 -0.12382565 1.768823e-38
0.709566 0.047198404 -0.12432197 1.1051932e-38
0.71171963 0.047417384 -0.12217701 1.7042473e-38
0.71765411 0.04685327 -0.12091841 2.3407943e-38
0.72282726 0.047933143 -0.1227472 2.2945165e-38
0.72752923 0.046260595 -0.12101884 2.2851523e-38
0.73226917 0.046405483 -0.12155992 2.2111444e-38
0.7382611 0.047370188 -0.12047756 2.1923829e-38
0.74223042 0.047283791 -0.12141841 2.201961e-38
0.74721599 0.047766384 -0.12023141 2.1644708e-38
0.75180334 0.049087651 -0.12066911 2.2013833e-38
0.75978184 0.047195189 -0.12011245 2.1003645e-38
0.76295203 0.047895271 -0.12123657 2.2290439e-38
0.76774788 0.047478836 -0.12209368 2.2291884e-38
0.77229285 0.047471762 -0.12191468 2.2106768e-38
0.77685922 0.047919035 -0.12206297 2.2198605e-38
0.78279805 0.047139145 -0.12227346 2.2290797e-38
0.78763056 0.047945663 -0.12171611 2.1369565e-38
0.79303312 0.047698461 -0.12229228 2.2106758e-38
0.79749745 0.046549264 -0.12301386 2.3123793e-38
0.80225092 0.047404692 -0.12292714 2.3494731e-38
0.80720824 0.047464233 -0.12291708 2.340181e-38
0.81203628 0.048274949 -0.12317295 2.3403985e-38
0.81669652 0.04637935 -0.12427498 2.3503751e-38
0.8239066 0.046690196 -0.12466687 2.3224286e-38
0.82852972 0.047031861 -0.12462386 2.340543e-38
0.83247787 0.047350414 -0.12431113 2.3500501e-38
0.83732677 0.047358595 -0.12395485 2.1928152e-38
0.8414225 0.048111118 -0.12394404 1.7319091e-38
0.70965874 0.052913483 -0.12423437 1.1051934e-38
0.71199727 0.052285645 -0.12166519 9.9409304e-39
0.71522731 0.052927233 -0.12027261 6.3474841e-39
0.72309697 0.05196951 -0.1227247 2.0731746e-38
0.72720081 0.053169273 -0.12242945 2.2945887e-38
0.73120481 0.051348597 -0.12014863 2.3497243e-38
0.7392301 0.054225303 -0.12109232 2.3496538e-38
0.74297166 0.052272703 -0.1214633 2.3402541e-38
0.74708784 0.052715253 -0.12065794 2.3403258e-38
0.75247353 0.05248351 -0.12102918 2.165188e-38
0.75737596 0.052987315 -0.12072192 2.1003654e-38
0.76169586 0.052928247 -0.12071965 2.0633437e-38
0.76830757 0.052095145 -0.12251295 2.1279882e-38
0.77178597 0.053063344 -0.12148644 2.1740507e-38
0.77748042 0.052416585 -0.1219968 2.3125238e-38
0.78293967 0.052422564 -0.12215924 2.3308541e-38
0.78692091 0.052653413 -0.12166819 2.3400373e-38
0.79173183 0.052641451 -0.12153844 2.3308541e-38
0.79781312 0.051629066 -0.12296796 2.349221e-38
0.80215156 0.052433126 -0.12383027 2.3493653e-38
0.80735731 0.052667432 -0.12288755 2.3401101e-38
0.81236112 0.052525006 -0.12231817 2.3312511e-38
0.81563759 0.050683185 -0.12292978 2.2576385e-38
0.82247674 0.054102786 -0.1242599 2.3506273e-38
0.82692325 0.053427406 -0.12448031 2.3501221e-38
0.83207268 0.051938415 -0.12461986 2.3498338e-38
0.83742648 0.052187454 -0.1247247 2.2020335e-38
0.84369892 0.051208414 -0.12461559 1.658153e-38
0.70930904 0.05789768 -0.1237521 1.1419275e-38
0.71204937 0.057573672 -0.12199084 1.7216768e-38
0.71720475 0.058077443 -0.12021456 1.5095192e-38
0.72350109 0.057849828 -0.1203551 1.3797981e-38
0.72653419 0.059218585 -0.12340397 1.9809806e-38
0.73898548 0.057827286 -0.12049326 1.6661139e-38
0.74285978 0.058269065 -0.12114652 1.6741107e-38
0.74737126 0.057373915 -0.12098172 1.9794694e-38
0.75330132 0.057809956 -0.12162503 1.8957388e-38
0.75782692 0.057234086 -0.12141348 2.0439349e-38
0.76275462 0.057434544 -0.12160194 1.9978728e-38
0.76766133 0.057683926 -0.12168785 1.9518108e-38
0.77304411 0.057251006 -0.12243991 1.9886177e-38
0.77751207 0.057603288 -0.12217299 1.951955e-38
0.78239393 0.057255168 -0.1222986 2.0723133e-38
0.78763616 0.057607546 -0.12246854 1.9151126e-38
0.79263079 0.057679832 -0.12204328 2.0259984e-38
0.79937834 0.057312306 -0.12388365 1.7679245e-38
0.80281132 0.057297491 -0.12378255 2.0445097e-38
0.80790877 0.057586093 -0.12268746 2.0725283e-38
0.81152886 0.058010992 -0.12110864 2.2208702e-38
0.8230257 0.055771872 -0.12458417 2.3504129e-38
0.82804567 0.057764858 -0.12459529 2.0265389e-38
0.8316316 0.057720527 -0.12482725 2.0358325e-38
0.84229994 0.058318324 -0.12420871 1.6675523e-38
0.70894545 0.062691368 -0.12390956 1.1788408e-38
0.71235526 0.062574722 -0.12192938 1.9427647e-38
0.71738511 0.062219691 -0.12124686 1.9794671e-38
0.72329581 0.062578365 -0.12186094 1.3137189e-38
0.72716969 0.062753767 -0.12208766 1.8677197e-38
0.73249829 0.062570713 -0.12094334 1.9864181e-38
0.73728347 0.062562585 -0.12082846 1.874778e-38
0.74265063 0.062740199 -0.12123976 1.948714e-38
0.74775791 0.062513247 -0.12161787 1.9486803e-38
0.75239736 0.0625856 -0.12162904 1.8925686e-38
0.75778389 0.062374454 -0.12189168 2.0410191e-38
0.76236182 0.062378969 -0.12212763 1.8282501e-38
0.76740563 0.062424447 -0.12215553 1.8652363e-38
0.7723822 0.062378697 -0.12181439 1.8652003e-38
0.77691936 0.06218148 -0.12204946 1.7273753e-38
0.78201205 0.062546678 -0.12275448 1.7916957e-38
0.7875517 0.062383786 -0.12285961 1.8007335e-38
0.79158866 0.062220354 -0.12218037 1.9772349e-38
0.79810858 0.062357947 -0.12372065 2.0786482e-38
0.80303901 0.06247041 -0.12398911 1.9961055e-38
0.80706072 0.062318336 -0.12341052 1.9124453e-38
0.81202167 0.062350973 -0.12286516 1.5532462e-38
0.81680828 0.063460931 -0.12427112 1.9679809e-38
0.82137668 0.063643634 -0.12495729 2.0522494e-38
0.82701814 0.061323941 -0.12464058 1.6837945e-38
0.83187836 0.063328572 -0.12474328 1.83062e-38
0.84337157 0.061791021 -0.12456133 1.6123071e-38
0.84620565 0.064014085 -0.12424086 1.603268e-38
0.70914155 0.067393899 -0.12381536 1.1695488e-38
0.71234322 0.067506783 -0.12169862 2.1549961e-38
0.71707088 0.067277737 -0.12041987 1.5458264e-38
0.72344106 0.066998363 -0.12163254 1.5990554e-38
0.72773784 0.067134686 -0.12125487 2.0981367e-38
0.73266774 0.067134455 -0.12110867 1.9323295e-38
0.73795176 0.067607306 -0.12191417 1.8028588e-38
0.74243087 0.067705095 -0.12147801 2.0062673e-38
0.74747831 0.067496985 -0.12157237 2.0892417e-38
0.75188279 0.067237973 -0.12133775 2.1815092e-38
0.75797921 0.067606159 -0.12249544 2.1071039e-38
0.76190925 0.066930138 -0.12151282 1.8101353e-38
0.76732868 0.067870177 -0.12243147 1.81035e-38
0.77245063 0.067080125 -0.12160049 1.8101351e-38
0.77768421 0.067541428 -0.12211999 1.7826564e-38
0.78327262 0.067611486 -0.12303734 1.7736172e-38
0.78775007 0.067531601 -0.1226199 1.8755702e-38
0.79172021 0.067388117 -0.12237138 1.8573816e-38
0.79769969 0.067347847 -0.12341653 1.9588685e-38
0.8028242 0.06742835 -0.12411547 2.0324455e-38
0.80809802 0.067178831 -0.12464666 1.9125199e-38
0.8132177 0.067338407 -0.12428522 1.8570938e-38
0.81658381 0.067075111 -0.12398436 1.8296862e-38
0.82238656 0.065863125 -0.12486607 2.0610728e-38
0.83340847 0.067092575 -0.12438927 1.896716e-38
0.83670998 0.068381131 -0.12434071 1.7128979e-38
0.84637362 0.068372734 -0.12348296 1.5848651e-38
0.70890123 0.072705843 -0.12312315 1.0774262e-38
0.71187359 0.072517589 -0.12121684 1.7409843e-38
0.71746737 0.07172025 -0.12042642 7.4455696e-39
0.72285575 0.072069556 -0.12074672 1.5169797e-38
0.72689676 0.072538264 -0.12118225 1.5353107e-38
0.73297071 0.071980603 -0.12068185 1.6814944e-38
0.7385518 0.072057895 -0.12241487 1.681638e-38
0.74277109 0.072283916 -0.12195284 1.6631267e-38
0.74718118 0.072649978 -0.12113991 1.7087928e-38
0.75230628 0.072623052 -0.12162524 1.7368818e-38
0.75762576 0.072306134 -0.12267148 1.7368472e-38
0.76180053 0.072574086 -0.12238298 1.7646121e-38
0.76795489 0.072656475 -0.12268031 1.7094394e-38
0.77294672 0.072492078 -0.12257542 1.7461014e-38
0.77814788 0.072134994 -0.12366362 1.7094036e-38
0.78262353 0.072378434 -0.12397932 1.709584e-38
0.7873382 0.072561219 -0.12355 1.7192335e-38
0.79226542 0.072440632 -0.12332111 1.8296872e-38
0.79765469 0.072847903 -0.12351539 1.7468208e-38
0.80284142 0.072613783 -0.12402412 1.7928461e-38
0.80815011 0.072412632 -0.12454831 1.7558613e-38
0.81210715 0.072806329 -0.12444973 1.7565442e-38
0.81655204 0.07219968 -0.12400462 1.8397359e-38
0.82154638 0.072761141 -0.12475574 1.7106247e-38
0.83429754 0.070262894 -0.12432042 1.7021308e-38
0.83664626 0.073159799 -0.12454379 1.5173406e-38
0.84660888 0.072555207 -0.1239147 1.5756455e-38
0.70883495 0.07764852 -0.12299256 9.0247068e-39
0.71227247 0.077604085 -0.120576 1.0774985e-38
0.71796346 0.079128072 -0.12085079 1.0037791e-38
0.72264749 0.078261331 -0.12188393 1.2067165e-38
0.72799838 0.0773893 -0.12200751 1.2889376e-38
0.73228514 0.078447059 -0.12114316 1.1879178e-38
0.7377792 0.077814855 -0.12181761 1.3074129e-38
0.7421059 0.077342071 -0.12220131 1.2978681e-38
0.74740767 0.077567451 -0.1217164 1.3806648e-38
0.75239986 0.077608101 -0.12170129 1.3805919e-38
0.7571159 0.077891931 -0.12166724 1.3807717e-38
0.7618947 0.078198627 -0.12233554 1.2980123e-38
0.76751423 0.07750614 -0.12358059 1.325563e-38
0.77220726 0.077739798 -0.12320299 1.316163e-38
0.77705044 0.077931933 -0.12329515 1.3807727e-38
0.78254724 0.077581845 -0.12433614 1.3714809e-38
0.78722304 0.077614985 -0.12407135 1.3898469e-38
0.79267305 0.077703021 -0.12375657 1.3804841e-38
0.79678881 0.077483103 -0.12386374 1.4353702e-38
0.80238271 0.077451959 -0.12454051 1.4080702e-38
0.80729556 0.07735429 -0.12440874 1.4355138e-38
0.81210697 0.077425301 -0.12431067 1.4168603e-38
0.8167361 0.075612508 -0.12440418 1.4522264e-38
0.82346356 0.076679289 -0.1247969 1.6094255e-38
0.83292073 0.07715141 -0.12490208 1.3798716e-38
0.83744037 0.077102937 -0.12426467 1.4543494e-38
0.84182847 0.07955417 -0.12457091 1.5664975e-38
0.84716201 0.078209132 -0.12486097 1.5756802e-38
0.70860451 0.082545467 -0.12358591 8.567707e-39
0.71162599 0.08287672 -0.12165731 7.9212516e-39
0.71760142 0.082369082 -0.12280651 7.1836963e-39
0.7222591 0.082847238 -0.12356746 9.6744161e-39
0.72759825 0.082841724 -0.12347336 1.022506e-38
0.73234892 0.082318954 -0.12264239 9.763725e-39
0.73710817 0.082836911 -0.12286549 1.0500919e-38
0.74258214 0.082698293 -0.12344591 1.0686037e-38
0.74730271 0.082337901 -0.1229142 1.0961548e-38
0.7523787 0.082426436 -0.12281436 1.1054098e-38
0.75717795 0.082806557 -0.12266785 1.1145936e-38
0.76248896 0.082473636 -0.123422 1.1238854e-38
0.76596063 0.08393611 -0.12467137 1.0962272e-38
0.77333748 0.081844591 -0.1243215 1.1698394e-38
0.77658826 0.082819737 -0.12407833 1.1606198e-38
0.78200406 0.082100153 -0.1246482 1.1699469e-38
0.78828669 0.081540212 -0.12469143 1.1975334e-38
0.79180586 0.081253208 -0.12444729 1.2158296e-38
0.79757798 0.082115561 -0.12452866 1.2159011e-38
0.80908525 0.080747694 -0.12470324 1.1604748e-38
0.83976966 0.080649182 -0.12476586 1.5572776e-38
0.84393799 0.081767455 -0.12468858 1.5664259e-38
0.84730995 0.082021706 -0.12426601 1.5756454e-38
0.71210331 0.085082769 -0.12413585 5.6149133e-39
0.71881992 0.085767344 -0.12461756 7.0936685e-39
0.72260725 0.086067148 -0.12427086 9.857001e-39
0.72767568 0.085719079 -0.12436637 1.1239578e-38
0.73234528 0.085715726 -0.12409914 1.0778949e-38
0.73757166 0.08591634 -0.1244133 9.6729615e-39
0.74258792 0.086000577 -0.12463744 9.9488365e-39
0.74789357 0.086188972 -0.12432983 1.0501656e-38
0.75182492 0.085799105 -0.12423137 1.0778238e-38
0.75831109 0.08565747 -0.1244756 1.0593483e-38
0.76401007 0.085022926 -0.12465763 1.0225789e-38
0.77785206 0.086005747 -0.12454596 1.0869358e-38
0.79920328 0.085204065 -0.12484065 1.1699825e-38
0.78112352 -0.055993915 -0.11927852 1.437316e-38
0.71358758 -0.052557543 -0.1189277 1.6868251e-38
0.7171914 -0.052242577 -0.11789524 1.5854823e-38
0.72149193 -0.050747484 -0.11772439 1.668494e-38
0.72778809 -0.0515632 -0.11906284 1.8249016e-38
0.73263389 -0.051350288 -0.11863247 1.9352121e-38
0.73601216 -0.05075283 -0.11781447 1.907697e-38
0.74223691 -0.050447494 -0.11815232 2.2026119e-38
0.74745172 -0.050809022 -0.11877873 2.3503046e-38
0.7528441 -0.051297847 -0.11887366 2.3317566e-38
0.75815147 -0.051020008 -0.11933687 2.3504841e-38
0.76023066 -0.050367266 -0.11976081 2.3505927e-38
0.77978456 -0.052830637 -0.11980107 2.2662422e-38
0.78167456 -0.054318279 -0.11960405 1.7779657e-38
0.71399045 -0.048130833 -0.11948669 1.7696198e-38
0.71723324 -0.04768071 -0.1184638 1.8894377e-38
0.72212064 -0.047589876 -0.11749709 1.9630857e-38
0.72721708 -0.047117289 -0.11865973 2.1196378e-38
0.73281896 -0.048943635 -0.1191931 2.1287489e-38
0.73770338 -0.047779266 -0.11887381 2.2302717e-38
0.7418583 -0.047455739 -0.11901021 2.2950236e-38
0.74592882 -0.048246492 -0.11961267 2.3503762e-38
0.75289935 -0.048438381 -0.11959197 2.3505561e-38
0.75621259 -0.047510564 -0.11937033 2.3137143e-38
0.76088208 -0.048031688 -0.11967681 2.1658402e-38
0.77803314 -0.045419335 -0.11999363 2.3508084e-38
0.7806775 -0.047007184 -0.11981856 2.3508794e-38
0.79309261 -0.046677034 -0.11957633 2.2554274e-38
0.71456301 -0.043711077 -0.11972335 1.9539748e-38
0.7173869 -0.042045619 -0.11794499 1.9170955e-38
0.72204351 -0.043131113 -0.11718332 2.147403e-38
0.727386 -0.041678835 -0.11873515 2.2672565e-38
0.73845327 -0.042609315 -0.11946127 2.3506639e-38
0.74230039 -0.042471901 -0.1195684 2.3506639e-38
0.74635571 -0.041818645 -0.11932602 2.341336e-38
0.75370562 -0.04269062 -0.11944546 2.3231495e-38
0.75725001 -0.042336393 -0.11871885 2.1933908e-38
0.78316289 -0.040982902 -0.11966977 2.3509158e-38
0.79364157 -0.043735545 -0.11941746 2.2835956e-38
0.79580021 -0.043879151 -0.1198051 2.3481256e-38
0.71781385 -0.037326485 -0.11831079 2.0920506e-38
0.72122633 -0.037124451 -0.11663713 2.1289635e-38
0.72805136 -0.037201967 -0.11869346 2.2765481e-38
0.73367113 -0.036704253 -0.11918271 2.3414086e-38
0.73824686 -0.037366197 -0.1191726 2.3507002e-38
0.74206525 -0.0367884 -0.11880794 2.3508801e-38
0.74745208 -0.037306905 -0.1194146 2.350663e-38
0.75358832 -0.038634133 -0.11973175 2.3226067e-38
0.75770164 -0.038304083 -0.11911988 2.267434e-38
0.71265167 -0.031124562 -0.11986329 2.1378219e-38
0.7177096 -0.032602236 -0.11904959 2.341049e-38
0.72225636 -0.032869451 -0.11845088 2.341265e-38
0.72728449 -0.032151707 -0.11907949 2.3506283e-38
0.73186022 -0.032152094 -0.11879457 2.350628e-38
0.73698682 -0.032488272 -0.11912038 2.3508437e-38
0.74242896 -0.032445449 -0.11900419 2.2397402e-38
0.74800533 -0.032017726 -0.11916188 2.2950587e-38
0.7521857 -0.031534381 -0.11864346 2.2489226e-38
0.75760245 -0.032630719 -0.1197345 2.1657651e-38
0.76174009 -0.031556979 -0.11967838 2.3509872e-38
0.76756817 -0.030319571 -0.11999893 2.0352067e-38
0.71301597 -0.02692141 -0.11946355 2.2118302e-38
0.71758538 -0.028025255 -0.11927803 2.3412288e-38
0.72212023 -0.027361639 -0.11901805 2.341265e-38
0.7277869 -0.027198708 -0.1188092 2.3507003e-38
0.73229814 -0.02729068 -0.11877584 2.3508081e-38
0.73750103 -0.027455978 -0.11915872 2.350916e-38
0.74344307 -0.027704582 -0.1195476 2.3505186e-38
0.74750787 -0.02768896 -0.11918432 2.3041336e-38
0.75233877 -0.027196219 -0.11846379 2.2212635e-38
0.75837809 -0.027232278 -0.11924957 2.350916e-38
0.76270854 -0.027343111 -0.11938705 2.3509154e-38
0.76941186 -0.029126152 -0.11978832 1.9888579e-38
0.71361941 -0.022465914 -0.11907858 2.3132457e-38
0.71678841 -0.022712087 -0.11861609 2.3410129e-38
0.72262698 -0.022809846 -0.11913302 2.3411568e-38
0.7267499 -0.02237859 -0.11849528 2.3507005e-38
0.73285383 -0.022388278 -0.11950248 2.3507719e-38
0.73761493 -0.022503454 -0.11899066 2.3508801e-38
0.74183547 -0.022669474 -0.1191702 2.2586848e-38
0.74767691 -0.023023117 -0.11963715 2.248779e-38
0.75261432 -0.022291148 -0.11937197 2.202321e-38
0.7573607 -0.022984914 -0.11919792 2.3509525e-38
0.76172042 -0.022153784 -0.11938128 2.3509883e-38
0.76522028 -0.023456931 -0.11972798 2.3509884e-38
0.71433842 -0.017112363 -0.11929606 2.3505201e-38
0.716398 -0.017354535 -0.11822857 2.3504844e-38
0.722305 -0.01764744 -0.11891658 2.3506999e-38
0.72684956 -0.017406894 -0.11854935 2.3506643e-38
0.73334521 -0.017636016 -0.11971249 2.3508086e-38
0.736956 -0.017558213 -0.11897173 2.3508427e-38
0.74313056 -0.016994029 -0.11972028 2.3134573e-38
0.7477532 -0.017897811 -0.11975121 2.350626e-38
0.75223917 -0.017699506 -0.1194301 2.322104e-38
0.75688773 -0.01756121 -0.11901791 2.3044936e-38
0.76232004 -0.017650578 -0.1192224 2.3508439e-38
0.76527262 -0.016444832 -0.11963058 2.2663522e-38
0.71441859 -0.013148725 -0.11975917 2.3509154e-38
0.71764666 -0.01278983 -0.11917474 2.3507002e-38
0.722763 -0.012716558 -0.11898142 2.3507719e-38
0.7271924 -0.01235908 -0.11831184 2.3507723e-38
0.73229438 -0.012316439 -0.11904735 2.3507723e-38
0.73733264 -0.012758475 -0.11951642 2.3508801e-38
0.74128056 -0.012680054 -0.11986014 2.3509886e-38
0.74712676 -0.012121606 -0.11976018 2.2217705e-38
0.75247163 -0.012886494 -0.11945426 2.2393426e-38
0.75765336 -0.013024891 -0.11961768 2.3039503e-38
0.76252663 -0.012560105 -0.11958504 1.9893999e-38
0.76640165 -0.01246576 -0.11960547 2.1177162e-38
0.77089947 -0.013074338 -0.11978398 2.191583e-38
0.71476877 -0.0067321956 -0.11975761 2.3509517e-38
0.71670651 -0.0063934177 -0.11981434 2.3507359e-38
0.72292209 -0.0074748099 -0.11942635 2.3507e-38
0.72713965 -0.0075808093 -0.11864541 2.3508441e-38
0.73205513 -0.0072877663 -0.11842427 2.3508082e-38
0.73708194 -0.00720568 -0.11852212 2.3508444e-38
0.74836349 -0.0076083392 -0.11980365 2.2028957e-38
0.75325072 -0.0084481966 -0.11971609 2.3508074e-38
0.75647938 -0.0084650666 -0.11982767 2.3509873e-38
0.76270044 -0.0065537691 -0.1195816 2.3227891e-38
0.76682842 -0.006369032 -0.11976928 2.3046747e-38
0.71439189 -0.0020175576 -0.11973819 2.3509157e-38
0.71514642 -0.0015705228 -0.11982432 2.3508797e-38
0.72231716 -0.002784105 -0.11905758 2.350592e-38
