# .PCD v0.7 - Point Cloud Data file format
VERSION 0.7
FIELDS x y z rgb
SIZE 4 4 4 4
TYPE F F F F
COUNT 1 1 1 1
WIDTH 781
HEIGHT 1
VIEWPOINT 0 0 0 1 0 0 0
POINTS 781
DATA ascii
0.77150613 -0.25134197 -0.14060402 1.2260574e-38
0.76553524 -0.21094617 -0.14101651 2.249084e-42
0.77134341 -0.20623253 -0.14123701 2.6064151e-42
0.78242719 -0.20028685 -0.14076492 3.3252813e-42
0.78796524 -0.20109451 -0.14246742 3.6868163e-42
0.79250669 -0.20104867 -0.14299265 1.8663614e-40
0.78204912 -0.19909257 -0.14243597 2.6050138e-42
0.79379958 -0.1981224 -0.14213796 6.8229012e-39
0.7950784 -0.19908565 -0.14078569 1.0141581e-38
0.76885617 -0.2506341 -0.13931885 1.2167299e-38
0.7716502 -0.25049207 -0.13829929 1.2629357e-38
0.76378518 -0.24618843 -0.13884026 2.0373927e-39
0.76738507 -0.24766254 -0.13782491 9.7731095e-39
0.77100998 -0.24925821 -0.1364138 1.281339e-38
0.75894976 -0.24040802 -0.13812478 7.2824136e-39
0.76233333 -0.24252072 -0.1374637 8.3524955e-40
0.75346541 -0.23839332 -0.13839927 3.3322877e-42
0.75769722 -0.23848969 -0.13810688 2.8617275e-39
0.76117414 -0.23764463 -0.13715675 4.2439207e-39
0.75349486 -0.23120803 -0.13801244 2.6064151e-42
0.76107925 -0.23247831 -0.13697006 6.2007457e-42
0.75284928 -0.22798139 -0.13717194 5.1343576e-42
0.75956625 -0.22752102 -0.13843994 6.2007457e-42
0.76044536 -0.22643526 -0.13754685 6.2049496e-42
0.7542761 -0.2226865 -0.13832957 5.1287524e-42
0.75535113 -0.22241832 -0.13663049 5.8574276e-42
0.76093483 -0.22254133 -0.13746306 4.7728226e-42
0.75437343 -0.21815704 -0.13846597 4.0525552e-42
0.75578195 -0.21849033 -0.13635172 5.8630328e-42
0.76201546 -0.21784516 -0.13782689 4.4098863e-42
0.75965869 -0.2133384 -0.13885584 6.2231665e-42
0.76253527 -0.21292721 -0.13753626 5.4986952e-42
0.76658702 -0.21086298 -0.13760929 2.9805618e-42
0.76834625 -0.2081608 -0.1374777 3.6980266e-42
0.77128708 -0.20645575 -0.13714646 3.3378929e-42
0.77349061 -0.2037341 -0.13766116 1.9001607e-42
0.77776045 -0.20267956 -0.1375695 3.3364916e-42
0.78242952 -0.20130426 -0.13718608 4.4070837e-42
0.78738153 -0.20071983 -0.13739982 9.6961446e-41
0.7963168 -0.20091517 -0.13926215 5.9877455e-39
0.78876275 -0.19965808 -0.13775724 2.8099397e-40
0.79125369 -0.19912811 -0.13720551 7.394638e-40
0.79628754 -0.19885628 -0.13946944 1.2717287e-38
0.77394885 -0.25070375 -0.13198729 1.3642792e-38
0.77836567 -0.25162569 -0.13126768 1.3274371e-38
0.76491553 -0.24549514 -0.13307509 3.2377225e-39
0.76710403 -0.24644209 -0.1328721 1.0604672e-38
0.77179748 -0.24891737 -0.13191564 1.3459121e-38
0.77508461 -0.24973932 -0.1304028 1.3734631e-38
0.76255494 -0.24223487 -0.132147 5.6081506e-40
0.76553988 -0.24415018 -0.13056676 1.9020525e-40
0.75772345 -0.2372292 -0.13128106 6.5762937e-42
0.76128334 -0.23785242 -0.13308205 4.1517349e-39
0.75438964 -0.23080723 -0.13470468 4.0385422e-42
0.75660276 -0.23258866 -0.13217084 6.5790963e-42
0.76143926 -0.23228826 -0.13169788 1.6653465e-39
0.75410193 -0.22706608 -0.13423219 5.4986952e-42
0.75671428 -0.22751798 -0.13229404 6.9448352e-42
0.76115537 -0.2285734 -0.13222685 8.7427011e-42
0.75646883 -0.22251385 -0.13262853 8.0280389e-42
0.76091439 -0.22210583 -0.13201031 8.0196311e-42
0.75492138 -0.21797329 -0.13465628 6.5833002e-42
0.75765824 -0.21760328 -0.13272351 9.1112426e-42
0.76182896 -0.21648414 -0.13227743 6.9420326e-42
0.75893116 -0.21408439 -0.13149115 1.0194446e-41
0.76236087 -0.21290773 -0.13204016 8.3881726e-42
0.7664116 -0.2112707 -0.13231817 6.9420326e-42
0.76232046 -0.20891757 -0.13099034 1.0562988e-41
0.76749378 -0.20732091 -0.13237454 9.1140452e-42
0.77133352 -0.20685315 -0.13267624 5.507103e-42
0.76358098 -0.20350341 -0.1316334 1.1274847e-41
0.76558018 -0.2043184 -0.13251305 1.1274847e-41
0.7736308 -0.20464411 -0.13294026 4.7826317e-42
0.77723575 -0.20390761 -0.13211636 5.1371602e-42
0.78252417 -0.20262876 -0.13245782 4.0483513e-42
0.78735083 -0.20090592 -0.13288665 2.8207017e-40
0.79067677 -0.20078751 -0.1317604 2.8208138e-40
0.78983009 -0.1996004 -0.13430023 3.685415e-42
0.79147726 -0.19797699 -0.13253732 5.0715444e-39
0.77872854 -0.25076556 -0.12925526 1.3182174e-38
0.7802726 -0.25143677 -0.12847182 1.2905952e-38
0.76823825 -0.24618874 -0.1281527 1.3461284e-38
0.77286959 -0.24730426 -0.12713602 1.3550957e-38
0.77676427 -0.24927464 -0.12795119 1.336692e-38
0.76332408 -0.24103388 -0.12818836 1.0176229e-41
0.76697874 -0.24299404 -0.12688124 2.3132397e-39
0.75890368 -0.23626694 -0.1292215 8.023835e-42
0.76227522 -0.23741552 -0.12751743 7.4629933e-40
0.76723045 -0.23849954 -0.12684247 4.8896516e-39
0.75841504 -0.23238738 -0.12755284 8.7525102e-42
0.76196301 -0.23304293 -0.12754256 1.3902058e-39
0.76520216 -0.23498774 -0.12674186 1.3945162e-39
0.75781018 -0.22723173 -0.12762177 9.1182491e-42
0.7620616 -0.22767803 -0.12717876 1.0546172e-41
0.75751281 -0.22217309 -0.12742549 1.0560185e-41
0.7625311 -0.22282621 -0.12752174 9.4685737e-42
0.75816435 -0.2183928 -0.12845299 1.0558784e-41
0.76203823 -0.21690615 -0.12719792 1.0197249e-41
0.7659604 -0.21534607 -0.12760013 9.4671724e-42
0.75985622 -0.2131701 -0.1291478 1.0561587e-41
0.7623865 -0.21272145 -0.12751584 1.164479e-41
0.76698023 -0.21203047 -0.12718952 9.8259048e-42
0.76431423 -0.20819101 -0.12728235 1.2003523e-41
0.76715082 -0.20769723 -0.12733786 1.0195848e-41
0.77226621 -0.20735253 -0.12712453 6.2245678e-42
0.77536207 -0.20556304 -0.12588947 5.1343576e-42
0.76336181 -0.20252571 -0.12977207 1.1993714e-41
0.77476668 -0.20412771 -0.12929423 5.1427654e-42
0.7773031 -0.20393261 -0.12736146 3.333689e-42
0.78239471 -0.20325735 -0.12750347 1.8791412e-42
0.78723705 -0.20224349 -0.12761423 9.6235573e-41
0.79192227 -0.20142774 -0.12740682 2.3067713e-39
0.79319084 -0.19909838 -0.1284323 1.0416726e-38
0.77309859 -0.24596839 -0.12292226 1.3458398e-38
0.77675831 -0.24781859 -0.122515 1.3366204e-38
0.76841253 -0.24166271 -0.12309942 2.1299386e-39
0.77104008 -0.24353731 -0.12200315 1.1617378e-38
0.76392424 -0.2364122 -0.122999 1.0188841e-41
0.76716274 -0.23832737 -0.12224902 2.9571784e-39
0.75942391 -0.23075902 -0.12406677 1.0197249e-41
0.76184851 -0.23277529 -0.12249313 1.0193045e-41
0.76682502 -0.23328641 -0.12231704 1.9404943e-39
0.7589016 -0.2273443 -0.12267558 1.0560185e-41
0.76335603 -0.22780211 -0.12267486 8.7455037e-42
0.76531094 -0.22696486 -0.12055579 9.7684516e-41
0.75831532 -0.22308183 -0.12290703 1.1647593e-41
0.76315624 -0.22220078 -0.12283375 9.4685737e-42
0.76549649 -0.22364926 -0.12175579 5.8560263e-42
0.76319498 -0.21796615 -0.12298225 9.8287074e-42
0.76664883 -0.2162452 -0.12204921 5.4958926e-42
0.76480108 -0.21356246 -0.12490726 1.163358e-41
0.76769584 -0.21271303 -0.12306369 6.2231665e-42
0.77160811 -0.21153431 -0.12199244 2.9707527e-42
0.76749259 -0.20747611 -0.1232452 8.0266376e-42
0.77296501 -0.20869704 -0.12327311 4.4140902e-42
0.77634287 -0.2069895 -0.12192367 1.5232114e-42
0.76660985 -0.20440072 -0.12293866 1.0544771e-41
0.77862203 -0.20418105 -0.1226208 4.3019863e-43
0.782561 -0.20307162 -0.12260382 4.1058045e-43
0.78786325 -0.20251536 -0.12246925 5.5575077e-40
0.7928915 -0.20159297 -0.12263041 9.1256087e-39
0.79547852 -0.20185912 -0.12193045 1.3547368e-38
0.79412174 -0.1988278 -0.12464657 1.3547363e-38
0.77416945 -0.24612014 -0.11664759 1.3366561e-38
0.77653605 -0.24682544 -0.11852671 1.3366561e-38
0.76889187 -0.24104802 -0.11781043 2.9586091e-39
0.77243078 -0.24342093 -0.11764741 1.3275809e-38
0.76704025 -0.23750523 -0.11746798 2.6809488e-39
0.76281947 -0.23236114 -0.1175119 6.9406313e-42
0.76728517 -0.23311874 -0.11760902 2.3049468e-39
0.75944769 -0.22763491 -0.11821465 8.3867713e-42
0.76039767 -0.22757044 -0.11644285 5.1413641e-42
0.76679754 -0.22750171 -0.11765603 4.7602109e-42
0.75904292 -0.22343805 -0.1190474 9.10844e-42
0.76112956 -0.22227001 -0.11713806 5.854625e-42
0.767084 -0.22309329 -0.11729881 2.9637463e-42
0.76362985 -0.21799628 -0.11752217 4.4182941e-42
0.76737517 -0.21706182 -0.11756016 2.6064151e-42
0.77053761 -0.21521246 -0.1191636 2.2378736e-42
0.76637596 -0.21336676 -0.11719422 4.7728226e-42
0.7721746 -0.21201721 -0.11749005 1.526014e-42
0.77468061 -0.20950778 -0.11717337 1.526014e-42
0.77681124 -0.2070296 -0.11720379 4.2459343e-43
0.77900219 -0.20388612 -0.11780497 2.1019477e-44
0.78226608 -0.20312738 -0.11791648 1.4012985e-45
0.78765738 -0.20263629 -0.11776926 1.2907402e-39
0.79062319 -0.20152158 -0.11842261 8.2954921e-39
0.7889663 -0.19978589 -0.1153627 9.3071343e-39
0.77340263 -0.24574292 -0.11244061 1.3734264e-38
0.76935077 -0.24081655 -0.11310295 1.0884151e-38
0.7721554 -0.24290609 -0.11242195 1.3827538e-38
0.76752025 -0.23734765 -0.11264298 1.1150566e-39
0.76426047 -0.23124644 -0.11307367 5.4860835e-42
0.76662862 -0.23300108 -0.11256056 2.3074677e-39
0.75983834 -0.22689071 -0.11477226 4.7798291e-42
0.7624076 -0.22779416 -0.11293798 4.77002e-42
0.76807714 -0.22774565 -0.11294768 3.6826124e-42
0.75975466 -0.22396675 -0.11484551 4.7798291e-42
0.76309007 -0.22275773 -0.11279386 5.1287524e-42
0.76834285 -0.22236465 -0.11207537 2.6008099e-42
0.76438242 -0.21830988 -0.11272821 5.1259498e-42
0.7679584 -0.21707031 -0.11297965 2.9651476e-42
0.77039754 -0.21591942 -0.11205392 1.1672816e-42
0.76752931 -0.21298409 -0.11284371 5.1273511e-42
0.77177006 -0.21203378 -0.1125254 1.8819438e-42
0.77546716 -0.21033162 -0.11390598 1.8763386e-42
0.77297139 -0.20836802 -0.11095397 4.7644148e-42
0.77728242 -0.20729323 -0.11230607 4.4841551e-44
0.77923018 -0.20459814 -0.11332824 0
0.78240108 -0.20254074 -0.1123585 0
0.78732944 -0.20105839 -0.11285652 2.489282e-39
0.78958321 -0.19976786 -0.11422551 1.0786205e-38
0.79020023 -0.19974986 -0.11308831 1.308711e-38
0.77267992 -0.24577574 -0.10763261 1.355059e-38
0.76953048 -0.24060173 -0.10754696 1.327545e-38
0.77170354 -0.24278317 -0.10751484 1.4102327e-38
0.76801914 -0.23718497 -0.10749373 4.2450067e-39
0.76438344 -0.23098131 -0.10717676 5.840612e-42
0.76666927 -0.23265451 -0.10758502 1.9386768e-39
0.76325709 -0.2272872 -0.10765223 5.1273511e-42
0.76810181 -0.22764038 -0.10800017 3.3196761e-42
0.7633875 -0.22226632 -0.10706096 5.1259498e-42
0.76769918 -0.22196054 -0.1069704 2.6050138e-42
0.76338476 -0.21841364 -0.10771464 5.1259498e-42
0.76917392 -0.21702103 -0.1076779 1.5246127e-42
0.77047396 -0.21532771 -0.10785595 1.1616764e-42
0.76997566 -0.21406631 -0.10753879 1.1658803e-42
0.77234852 -0.21215004 -0.10760427 2.6050138e-42
0.77320486 -0.20838802 -0.10749371 4.4056824e-42
0.7775985 -0.20713286 -0.10769585 2.9427268e-44
0.77257657 -0.20412591 -0.10714488 8.3629492e-42
0.77929878 -0.20414281 -0.10722156 0
0.78251982 -0.20284815 -0.10721331 0
0.78630233 -0.20045114 -0.10846464 0
0.78719592 -0.19959736 -0.10975304 0
0.77264011 -0.24578832 -0.10377955 1.3917942e-38
0.771972 -0.24246275 -0.10271953 1.391866e-38
0.76886922 -0.23687917 -0.10272234 1.5749474e-39
0.77034765 -0.23882695 -0.10182901 4.9811046e-39
0.76451463 -0.23123322 -0.10230371 5.4860835e-42
0.7675007 -0.23307906 -0.102613 9.2633816e-40
0.7642597 -0.22705862 -0.10298404 4.7672174e-42
0.76731843 -0.22807617 -0.10242204 4.0441474e-42
0.76403731 -0.22255421 -0.10208426 4.7672174e-42
0.76787758 -0.22221816 -0.10218858 2.2434788e-42
0.76237381 -0.21756209 -0.10239895 5.1287524e-42
0.76907271 -0.2180517 -0.10276547 1.5246127e-42
0.77044702 -0.21553929 -0.10263507 8.8281803e-44
0.76379597 -0.21485217 -0.10073972 5.1273511e-42
0.77239501 -0.21215753 -0.10215803 8.0714792e-43
0.77366722 -0.20795842 -0.10280962 3.6812111e-42
0.77668947 -0.20637232 -0.10297588 7.5529987e-43
0.78042817 -0.20529085 -0.10418543 0
0.77311242 -0.20365897 -0.10485443 8.3615479e-42
0.77848619 -0.20417127 -0.10078204 0
0.78218269 -0.20262405 -0.10287659 0
0.78557163 -0.2003016 -0.10428274 0
0.78379166 -0.19937976 -0.10098384 0
0.7861712 -0.19843878 -0.10240227 3.2268442e-39
0.77337301 -0.24159846 -0.098035119 1.4288153e-38
0.77565879 -0.24326448 -0.097263113 1.4194166e-38
0.76848388 -0.2364233 -0.097308353 1.111821e-39
0.77122003 -0.23853064 -0.097058102 5.6272111e-39
0.76461482 -0.23218322 -0.096952103 5.4860835e-42
0.76680231 -0.23217916 -0.097534046 2.2149092e-39
0.76465392 -0.2290498 -0.099074185 5.1273511e-42
0.7672143 -0.22726612 -0.097505994 4.0427461e-42
0.76481712 -0.2225288 -0.098924339 4.4126889e-42
0.76653123 -0.22256458 -0.097260512 3.3308864e-42
0.7643044 -0.21780165 -0.098220438 4.4154915e-42
0.76705688 -0.21791758 -0.096347168 3.6826124e-42
0.77131861 -0.21605562 -0.09765444 1.1616764e-42
0.76471633 -0.21433845 -0.099593237 5.1273511e-42
0.76648909 -0.21337025 -0.097496107 5.4874848e-42
0.77339709 -0.21299838 -0.097951576 1.1616764e-42
0.77532983 -0.21119027 -0.096694939 4.4140902e-43
0.77155131 -0.20817703 -0.097670741 6.5650833e-42
0.77643955 -0.2076582 -0.097534522 5.465064e-44
0.77853632 -0.20361608 -0.097118974 5.6051939e-45
0.78192103 -0.20166335 -0.097530484 0
0.7836386 -0.19919334 -0.097615488 0
0.78695369 -0.19816968 -0.097079001 3.4087384e-39
0.77302158 -0.24089451 -0.092337735 1.4747699e-38
0.77527356 -0.24148381 -0.092752308 1.4286001e-38
0.76851457 -0.23647884 -0.092166148 2.7709682e-39
0.77084267 -0.23931451 -0.092314772 8.9447922e-39
0.76450688 -0.23295148 -0.092421211 6.5594781e-42
0.76749408 -0.23284627 -0.092097476 2.2149022e-39
0.76480931 -0.22987489 -0.094492853 4.4182941e-42
0.76787734 -0.22786444 -0.09217158 4.4070837e-42
0.76762307 -0.22240867 -0.092488386 4.0483513e-42
0.77013469 -0.22054154 -0.090675414 1.1658803e-42
0.76730537 -0.21753125 -0.092548832 3.6952241e-42
0.77199674 -0.2166139 -0.092162989 1.1602751e-42
0.77546626 -0.21546087 -0.091628835 1.1658803e-42
0.76780647 -0.21235399 -0.092782073 5.131555e-42
0.77295411 -0.21257703 -0.0923668 2.962345e-42
0.77580231 -0.21228264 -0.092562646 1.1616764e-42
0.76803529 -0.20858987 -0.092490122 6.925217e-42
0.7722919 -0.20795983 -0.091246143 5.8476185e-42
0.77686441 -0.2075998 -0.092457689 6.7262326e-44
0.77887893 -0.20338909 -0.09218096 9.8090893e-45
0.78222835 -0.20118032 -0.092435881 0
0.78546423 -0.20077661 -0.091632545 0
0.78467166 -0.19923162 -0.094360679 0
0.78787977 -0.19865011 -0.092727751 5.8987491e-39
0.77897501 -0.24568491 -0.087446094 1.428636e-38
0.77244031 -0.24092767 -0.086887449 1.4564028e-38
0.77663428 -0.24322242 -0.086623587 1.4286002e-38
0.76882255 -0.23724508 -0.08743947 3.3241378e-39
0.77063084 -0.23943752 -0.086992264 9.9567665e-39
0.76454449 -0.2322022 -0.089636475 6.202147e-42
0.76804674 -0.23283312 -0.087395273 1.7557387e-39
0.77010858 -0.23084357 -0.089198351 2.5839944e-42
0.76428688 -0.22674492 -0.086163759 4.4154915e-42
0.76777905 -0.22773409 -0.087410122 4.0441474e-42
0.77019507 -0.22578849 -0.086322084 2.6022112e-42
0.76829457 -0.22223873 -0.087401696 4.4056824e-42
0.77045131 -0.2202937 -0.085751176 2.2378736e-42
0.76890284 -0.21737772 -0.087684326 3.6980266e-42
0.77230293 -0.21744622 -0.087571211 1.5176062e-42
0.76877034 -0.21407984 -0.087803714 4.7756252e-42
0.7724939 -0.21233867 -0.087212399 4.0525552e-42
0.77575952 -0.21229884 -0.087690912 1.5246127e-42
0.77332473 -0.20745015 -0.087722473 6.2105548e-42
0.77702993 -0.20787086 -0.087064825 1.8819438e-42
0.78038859 -0.2057589 -0.08574751 7.1466222e-44
0.77203244 -0.20443128 -0.087117255 8.3615479e-42
0.77756006 -0.20410053 -0.087645486 3.6587903e-42
0.78150958 -0.20222366 -0.087503664 9.257398e-41
0.78381246 -0.19977918 -0.087021947 6.4537221e-40
0.78627717 -0.19876185 -0.086983316 2.9495721e-39
0.77948916 -0.24564083 -0.082584582 1.4378195e-38
0.77166462 -0.24131553 -0.081497431 1.4379995e-38
0.77736646 -0.24353607 -0.083045982 1.4286717e-38
0.76928735 -0.23660259 -0.083167262 1.4820315e-39
0.77050644 -0.23805732 -0.081993036 5.9030791e-39
0.76819521 -0.23266208 -0.082567975 2.3085467e-39
0.7704159 -0.23190559 -0.080966182 1.4733714e-39
0.76703399 -0.22796571 -0.082405478 4.4056824e-42
0.77031404 -0.22792484 -0.082430743 2.2434788e-42
0.76800722 -0.22306493 -0.083102688 4.4070837e-42
0.77097684 -0.22240338 -0.0824176 1.8763386e-42
0.76877618 -0.21756017 -0.082844861 5.1301537e-42
0.77231783 -0.21777144 -0.082340963 1.1588738e-42
0.76846874 -0.21418349 -0.082474813 4.7756252e-42
0.77386051 -0.21326131 -0.082803778 8.0014142e-43
0.77553767 -0.21076761 -0.082443736 8.0294402e-43
0.77701187 -0.20757258 -0.082741491 2.6036125e-42
0.78169686 -0.20610946 -0.082197882 4.4561291e-43
0.77582264 -0.20477605 -0.08393468 7.6426818e-42
0.7832368 -0.20352955 -0.084045731 1.8516898e-40
0.78667152 -0.20218912 -0.082272358 1.8554453e-40
0.78766501 -0.19937557 -0.08412312 1.1957294e-39
0.77845275 -0.24575281 -0.077384815 1.4654062e-38
0.78084838 -0.24594244 -0.076251477 1.4654063e-38
0.76970518 -0.2404359 -0.078606352 1.3827547e-38
0.77231401 -0.24198334 -0.076868795 1.4471107e-38
0.77612007 -0.24423952 -0.076462306 1.4471106e-38
0.76929635 -0.23767236 -0.077807628 4.9803969e-39
0.77063751 -0.23696858 -0.077305667 4.7041814e-39
0.76884288 -0.23215908 -0.077733532 4.6645022e-40
0.77046156 -0.2326121 -0.07725393 1.9375894e-39
0.76703256 -0.22750171 -0.077786639 5.1259498e-42
0.77066857 -0.22776411 -0.077865884 2.9581411e-42
0.76609272 -0.22259153 -0.077084877 5.1287524e-42
0.77150005 -0.22268668 -0.077650025 1.5232114e-42
0.76479709 -0.21786503 -0.076373331 4.4168928e-42
0.76626611 -0.21789616 -0.077465087 4.4154915e-42
0.77270639 -0.21745843 -0.07703308 1.1616764e-42
0.76753968 -0.21402311 -0.07716351 5.4860835e-42
0.77349931 -0.21258864 -0.077413321 1.8805425e-42
0.77710289 -0.21045649 -0.077317871 1.5162049e-42
0.77492368 -0.20994785 -0.078963608 1.8763386e-42
0.77812046 -0.20884196 -0.078196369 1.1588738e-42
0.78237724 -0.207408 -0.077075534 1.8819438e-42
0.78735173 -0.20586033 -0.077200525 2.5994087e-42
0.78408706 -0.20448291 -0.079874575 2.5980074e-42
0.78877509 -0.20297636 -0.078617908 7.3980572e-40
0.79257965 -0.20273691 -0.077143364 5.07118e-39
0.79600692 -0.20348796 -0.07599394 1.1152852e-38
0.78102112 -0.24538195 -0.072481342 1.4470751e-38
0.77390665 -0.24069531 -0.073394597 1.5208668e-38
0.77735442 -0.24291873 -0.0726083 1.4654779e-38
0.7800498 -0.24449228 -0.070410818 1.4654411e-38
0.76926631 -0.23596849 -0.072515294 9.983691e-41
0.77169639 -0.2382085 -0.072437525 4.9807612e-39
0.76782924 -0.23232053 -0.072699524 5.8420133e-42
0.7708419 -0.23206621 -0.07324107 3.3165273e-39
0.76680309 -0.2276475 -0.072732277 5.1245485e-42
0.77049142 -0.22727206 -0.072000168 2.2364723e-42
0.76797575 -0.22252907 -0.072821289 4.7686187e-42
0.77107042 -0.22213277 -0.072531275 1.5218101e-42
0.76780236 -0.21789524 -0.073022313 4.7728226e-42
0.77235317 -0.21760845 -0.072492555 1.1588738e-42
0.76958805 -0.21463168 -0.072769485 5.4874848e-42
0.77308458 -0.2125209 -0.072851881 3.685415e-42
0.77664685 -0.21151307 -0.072715484 1.5204088e-42
0.78031921 -0.21001101 -0.073373795 1.1658803e-42
0.77368194 -0.20891206 -0.073162436 5.8476185e-42
0.77738976 -0.20923863 -0.072472543 2.9651476e-42
0.78281271 -0.20877899 -0.072283641 1.5232114e-42
0.78736192 -0.2067146 -0.072713122 2.5994087e-42
0.79170108 -0.20534675 -0.072518639 1.8819438e-42
0.79722661 -0.20614755 -0.073494382 6.6392302e-39
0.80004275 -0.20554727 -0.074162453 1.235064e-38
0.79261684 -0.20400935 -0.073400959 7.4053579e-40
0.79870546 -0.2049163 -0.074902147 1.2077665e-38
0.78193367 -0.24543443 -0.068113998 1.483845e-38
0.77476537 -0.24039599 -0.067921147 1.5945518e-38
0.77750772 -0.2419631 -0.067655265 1.4839169e-38
0.78084683 -0.24420436 -0.067369528 1.4654779e-38
0.78529727 -0.24428464 -0.066663057 1.4655139e-38
0.76952279 -0.23567946 -0.067563094 7.648287e-42
0.77251565 -0.23808961 -0.067738213 6.1800191e-39
0.77509916 -0.23952094 -0.066441476 1.4842776e-38
0.76789081 -0.23264922 -0.067742087 6.5608794e-42
0.77140498 -0.2321811 -0.067389436 3.2254219e-39
0.76695061 -0.2275985 -0.067518532 5.1259498e-42
0.77088445 -0.22680607 -0.06721279 2.5980074e-42
0.76695138 -0.22237682 -0.067118809 4.7686187e-42
0.77139896 -0.22252074 -0.067710519 1.5190075e-42
0.76807708 -0.21758372 -0.067391984 5.1273511e-42
0.77309394 -0.21766987 -0.06728787 8.0014142e-43
0.76820749 -0.21400674 -0.066481985 5.131555e-42
0.77436918 -0.21399757 -0.068225801 7.9593753e-43
0.77673084 -0.21165542 -0.067693375 8.0014142e-43
0.77888131 -0.20852792 -0.065923207 1.1602751e-42
0.78261065 -0.20845178 -0.067883581 1.5232114e-42
0.78684437 -0.20649128 -0.067524664 2.5980074e-42
0.79234344 -0.2055008 -0.067417182 2.2448801e-42
0.79552603 -0.20577542 -0.068809584 1.014222e-39
0.78746068 -0.20467629 -0.066620424 2.6022112e-42
0.79423618 -0.20370613 -0.067789719 4.7013311e-39
0.79547608 -0.20383906 -0.065934509 6.0796189e-39
0.77769756 -0.24184835 -0.062514775 1.4839525e-38
0.78073341 -0.24394819 -0.063502029 1.4655139e-38
0.76935518 -0.2359513 -0.062180746 6.5622807e-42
0.77212131 -0.23809615 -0.062496416 5.9030735e-39
0.77534276 -0.23982707 -0.061837241 1.4934965e-38
0.76865691 -0.2324466 -0.062745593 1.9023047e-40
0.77134931 -0.23260096 -0.062228214 3.6878406e-39
0.76865798 -0.22723231 -0.062934652 5.1287524e-42
0.77185333 -0.22778958 -0.062342554 1.8819438e-42
0.76876897 -0.2223731 -0.06297835 5.1301537e-42
0.77200401 -0.22260195 -0.062225204 1.8847464e-42
0.76815397 -0.21775492 -0.062561378 4.0581604e-42
0.77314365 -0.21721318 -0.06216985 1.1574725e-42
0.76845229 -0.21359819 -0.062554136 4.7756252e-42
0.77407908 -0.21344525 -0.062414143 1.5176062e-42
0.7768541 -0.21159278 -0.06237331 1.1602751e-42
0.77895939 -0.20893621 -0.063180715 1.5190075e-42
0.7819531 -0.20735298 -0.062271994 1.8763386e-42
0.78767967 -0.20640676 -0.062546462 2.2392749e-42
0.79241222 -0.20565994 -0.061115649 1.8833451e-42
0.78895926 -0.20463255 -0.063858323 2.2434788e-42
0.79305518 -0.20425281 -0.062563673 1.7521626e-39
0.79630607 -0.20341736 -0.062081367 1.0507464e-38
0.7804684 -0.24530458 -0.057783686 1.4563653e-38
0.7777487 -0.24218479 -0.05734621 1.4747694e-38
0.78042912 -0.24425234 -0.059425503 1.4655849e-38
0.76919395 -0.23591155 -0.058210451 6.9196118e-42
0.77190071 -0.23767982 -0.057164051 4.5205034e-39
0.77519608 -0.23925522 -0.056858897 1.4379993e-38
0.76842439 -0.23248911 -0.057584286 6.202147e-42
0.7712636 -0.2314783 -0.057681702 2.4889429e-39
0.76938367 -0.22757463 -0.057722054 5.1273511e-42
0.77095383 -0.22749889 -0.057369292 3.3210774e-42
0.76910144 -0.22287075 -0.057705395 4.4070837e-42
0.77177072 -0.22250292 -0.057638299 2.6008099e-42
0.76944637 -0.2179729 -0.059203722 4.4140902e-42
0.77228218 -0.21741043 -0.057507779 2.9651476e-42
0.77217567 -0.213038 -0.057543073 4.7686187e-42
0.77667195 -0.21189427 -0.057460129 1.1588738e-42
0.77201408 -0.20946163 -0.057284087 6.2119561e-42
0.77890903 -0.20931084 -0.057531871 1.5176062e-42
0.7824229 -0.20727773 -0.057697523 1.5204088e-42
0.78801608 -0.20608935 -0.057641666 2.5994087e-42
0.7924751 -0.20585191 -0.057545923 3.3196761e-42
0.79513597 -0.20532835 -0.058565646 7.9874012e-44
0.79433829 -0.20432957 -0.057461902 9.1987537e-40
0.79615879 -0.20358992 -0.057557531 8.4784723e-39
0.77972603 -0.24558321 -0.054606557 1.4471104e-38
0.78153324 -0.24558024 -0.052296519 1.4471099e-38
0.7781108 -0.24159247 -0.053215489 1.4655495e-38
0.781551 -0.24350294 -0.052502833 1.4562937e-38
0.76976401 -0.23531738 -0.053989232 9.0748089e-42
0.77155447 -0.237376 -0.052502614 3.3219728e-39
0.77612531 -0.23947194 -0.052602194 1.5761839e-38
0.76896065 -0.2326481 -0.05265931 6.2035483e-42
0.77064466 -0.23205133 -0.051989883 1.4766042e-39
0.7695235 -0.22694057 -0.052923813 5.1273511e-42
0.77129096 -0.22797249 -0.052172121 3.3210774e-42
0.76839197 -0.22236413 -0.052543141 4.4126889e-42
0.77228212 -0.22270252 -0.052431021 1.1574725e-42
0.76847285 -0.21919087 -0.052360203 4.0609629e-42
0.77275628 -0.21694364 -0.052199028 2.6050138e-42
0.77543199 -0.21558452 -0.050792456 1.1560712e-42
0.77351522 -0.21264091 -0.053197812 4.408485e-42
0.7768783 -0.21214059 -0.052428909 1.5190075e-42
0.77156556 -0.20924062 -0.054469764 6.925217e-42
0.77817756 -0.20859115 -0.05146962 3.6896189e-42
0.78216755 -0.20699003 -0.052631486 1.8805425e-42
0.78766155 -0.20639525 -0.05352274 2.5966061e-42
0.79274344 -0.20618661 -0.052653391 2.5980074e-42
0.78525579 -0.20435101 -0.050599098 2.9581411e-42
0.79462004 -0.20429653 -0.052995868 1.7521598e-39
0.79609525 -0.20275967 -0.051673125 9.124164e-39
0.78467143 -0.24597234 -0.047037534 1.4470737e-38
0.78611177 -0.24612597 -0.046636075 1.4378546e-38
0.77786261 -0.241258 -0.04720727 1.4746613e-38
0.78243315 -0.24374935 -0.04728077 1.4562575e-38
0.78594363 -0.2445329 -0.048068732 1.4654767e-38
0.77280748 -0.23744883 -0.047588762 4.7978189e-39
0.77564615 -0.23931074 -0.045779176 1.3550231e-38
0.76932257 -0.23249127 -0.048668627 6.9210131e-42
0.77149016 -0.23255855 -0.046821386 1.7553645e-39
0.76929402 -0.22932811 -0.047166497 6.2007457e-42
0.77126223 -0.22708781 -0.047441598 3.32388e-42
0.76927036 -0.22222048 -0.048385151 4.0525552e-42
0.77118158 -0.22263943 -0.047143158 2.6022112e-42
0.7690711 -0.21933027 -0.048108079 4.4140902e-42
0.77271754 -0.21709044 -0.047299005 2.9637463e-42
0.77503026 -0.21522084 -0.047501236 5.1273511e-42
0.77424026 -0.21450117 -0.047873162 1.5232114e-42
0.77639604 -0.21245669 -0.047704093 2.610619e-42
0.77822864 -0.20839998 -0.048190765 3.3252813e-42
0.78232771 -0.2063687 -0.047634564 1.5204088e-42
0.78718781 -0.20557319 -0.046976291 2.2406762e-42
0.7919026 -0.20585309 -0.047986913 3.3168735e-42
0.78466642 -0.2044801 -0.048195094 2.5980074e-42
0.78703147 -0.20429917 -0.047326177 2.9581411e-42
0.79381317 -0.20410837 -0.046801683 1.6610474e-39
0.79632771 -0.20258318 -0.048233539 9.5851632e-39
0.78677982 -0.24609374 -0.042500101 1.4377831e-38
0.77850193 -0.24051628 -0.042353347 1.4655495e-38
0.78269196 -0.24250144 -0.042778369 1.4378547e-38
0.78577411 -0.24455497 -0.04203333 1.437819e-38
0.77424175 -0.23612067 -0.042786337 2.1245114e-39
0.77648091 -0.23827215 -0.042239219 9.773827e-39
0.77302992 -0.23249428 -0.042581361 4.6680475e-40
0.77504396 -0.23488599 -0.040000528 9.0832166e-42
0.77124262 -0.22748627 -0.042424016 4.0441474e-42
0.76978797 -0.22171707 -0.042138923 4.0539565e-42
0.77122337 -0.22280179 -0.042741124 2.6050138e-42
0.76941866 -0.21921645 -0.041415732 4.4140902e-42
0.77290082 -0.21748726 -0.042968918 1.5204088e-42
0.7756483 -0.21555404 -0.041854214 1.5176062e-42
0.77464551 -0.21292846 -0.042096578 4.408485e-42
0.77633476 -0.21250202 -0.042713579 2.2420775e-42
0.77883458 -0.20834784 -0.042733479 1.1560712e-42
0.78279465 -0.20617349 -0.042236075 1.5162049e-42
0.78630412 -0.20538235 -0.04251989 2.2364723e-42
0.7883811 -0.20405737 -0.042452224 2.6008099e-42
0.79305506 -0.20223217 -0.042427249 4.6091313e-39
0.79530406 -0.20035905 -0.041867644 1.327006e-38
0.79449832 -0.19922918 -0.044285089 1.179999e-38
0.79541844 -0.19881785 -0.042899705 1.2440291e-38
0.7791456 -0.24051183 -0.038441934 1.4655131e-38
0.783674 -0.24188536 -0.038027067 1.4378544e-38
0.78547436 -0.24359885 -0.038252912 1.4470025e-38
0.77447039 -0.23801236 -0.036503524 9.5916077e-39
0.77609605 -0.23753113 -0.037301708 6.8243011e-39
0.78206277 -0.23999998 -0.03725028 1.419631e-38
0.77348477 -0.23226893 -0.03756737 4.6608448e-40
0.7754218 -0.23445097 -0.037821617 8.3615479e-42
0.77181637 -0.22755285 -0.037387785 4.0455487e-42
0.76920909 -0.22233976 -0.036536109 4.0511539e-42
0.77189398 -0.22227848 -0.037828349 1.887549e-42
0.76854461 -0.21765777 -0.037311733 4.77002e-42
0.77314824 -0.21729124 -0.037564989 1.164479e-42
0.77530038 -0.21514845 -0.035523742 7.9874012e-44
0.77291942 -0.21226922 -0.037092876 4.7756252e-42
0.77687496 -0.21206211 -0.037345391 4.4140902e-43
0.7725606 -0.20950982 -0.035160139 5.1399628e-42
0.77927101 -0.20857877 -0.036789585 1.8805425e-42
0.78181642 -0.20728616 -0.037571952 1.5162049e-42
0.78736442 -0.20598209 -0.037637994 2.2392749e-42
0.79063171 -0.20571838 -0.035680734 2.9637463e-42
0.78861278 -0.20424481 -0.038751591 2.5980074e-42
0.79287529 -0.20270041 -0.037589997 2.8584989e-39
0.79536796 -0.2008276 -0.039103016 1.2351736e-38
0.7782591 -0.24110164 -0.032697849 1.4286353e-38
0.78297657 -0.24200487 -0.031289294 1.4101604e-38
0.77451146 -0.23650551 -0.031754423 4.6499988e-40
0.77603948 -0.23815764 -0.033174217 9.4968856e-39
0.77338797 -0.2323775 -0.032354176 8.3450266e-40
0.77502221 -0.23436879 -0.034600109 8.3615479e-42
0.77221543 -0.22755653 -0.032396477 3.6770072e-42
0.76955587 -0.22155087 -0.033614051 4.0553578e-42
0.77166444 -0.2225318 -0.032278586 2.610619e-42
0.76884252 -0.21901551 -0.03397217 4.77002e-42
0.77254903 -0.21720177 -0.032222524 2.9693514e-42
0.77547127 -0.21609488 -0.03387313 7.9874012e-44
0.77356392 -0.21221419 -0.033787869 4.7770265e-42
0.77751565 -0.2118943 -0.032881852 2.2434788e-42
0.78073967 -0.21104304 -0.031775307 4.4210967e-42
0.77360988 -0.20963661 -0.033895623 6.9322235e-42
0.7792415 -0.20827331 -0.032780308 4.7742239e-42
0.7818203 -0.20738685 -0.032578718 1.5204088e-42
0.78715962 -0.20592053 -0.032403141 1.8805425e-42
0.7929346 -0.20605443 -0.032432422 2.6064151e-42
0.79583001 -0.20657307 -0.033597142 2.9707527e-42
0.79403991 -0.20363456 -0.033809032 1.3833787e-39
0.79660928 -0.20301484 -0.032339357 6.2675456e-39
0.77811432 -0.24034625 -0.027859343 1.410232e-38
0.78312528 -0.24163882 -0.027920384 1.4009766e-38
0.7858631 -0.24346285 -0.027340196 1.3917929e-38
0.77474391 -0.23600084 -0.02790796 6.5580768e-42
0.7761237 -0.23796201 -0.027341595 8.8515133e-39
0.77350354 -0.23239559 -0.027360985 1.2947577e-39
0.77521235 -0.23275317 -0.026345 3.685415e-42
0.77255487 -0.22779319 -0.027292522 3.685415e-42
0.77210683 -0.22243133 -0.027453078 2.6134216e-42
0.76927376 -0.2189675 -0.025541373 4.0595617e-42
0.77319056 -0.21759635 -0.027832335 1.8903516e-42
0.77573478 -0.2161793 -0.027079545 7.9874012e-44
0.7723887 -0.21451309 -0.028120976 4.0581604e-42
0.77743381 -0.21245192 -0.027053703 7.9874012e-44
0.77949035 -0.2090362 -0.027353104 4.4000772e-43
0.78229105 -0.20668596 -0.027754582 8.0154272e-43
0.78816926 -0.20528974 -0.027684867 2.2420775e-42
0.79262668 -0.20569611 -0.027944718 2.6036125e-42
0.79649317 -0.20552529 -0.026909655 6.4653529e-40
0.80066431 -0.20528015 -0.025617659 7.1902418e-39
0.78421509 -0.20471191 -0.027316667 1.8763386e-42
0.7859394 -0.20444584 -0.025446124 2.2364723e-42
0.79755211 -0.20327573 -0.028262148 6.1757129e-39
0.80237019 -0.20319752 -0.027192572 8.2000062e-39
0.77975595 -0.24031186 -0.023265511 1.4101597e-38
0.78086436 -0.24092022 -0.021888722 1.391757e-38
0.78505534 -0.24153823 -0.024837554 1.400977e-38
0.77432519 -0.23538537 -0.023458442 1.1613421e-38
0.77726531 -0.2372337 -0.022510322 7.8373712e-39
0.78039563 -0.23953192 -0.020395488 1.4470385e-38
0.77455121 -0.23240452 -0.02311451 1.1096518e-39
0.77532572 -0.23259501 -0.021748086 1.8624378e-40
0.77390927 -0.22725387 -0.02270034 4.4056824e-42
0.77524728 -0.22913334 -0.023379913 1.8959568e-42
0.7727403 -0.22250566 -0.022614991 2.610619e-42
0.769894 -0.21899904 -0.024264097 4.4182941e-42
0.77196753 -0.21781032 -0.022259168 3.6980266e-42
0.77601838 -0.2169228 -0.02277587 8.1275311e-44
0.77195764 -0.2139518 -0.022344021 4.4196954e-42
0.77823514 -0.21308146 -0.022750871 1.1616764e-42
0.78067482 -0.21155855 -0.021592174 8.5479206e-44
0.78263235 -0.20791042 -0.022901082 8.0154272e-43
0.7874859 -0.20624137 -0.022241294 1.8749373e-42
0.7925294 -0.20615143 -0.022314604 2.6036125e-42
0.79784626 -0.20590834 -0.022437215 2.2145799e-39
0.80226117 -0.20582567 -0.022519661 9.3085272e-39
0.78596318 -0.20466088 -0.024094611 1.5162049e-42
0.8036167 -0.20423573 -0.023217039 9.6747636e-39
0.78241593 -0.24134311 -0.017458433 1.3641343e-38
0.78676778 -0.24275868 -0.016618067 1.3548785e-38
0.77735585 -0.23722208 -0.017815489 7.5611431e-39
0.78036761 -0.23959871 -0.017022956 1.373462e-38
0.77367371 -0.23230389 -0.017451754 5.8490198e-42
0.77573979 -0.23375261 -0.017908785 2.9524406e-39
0.77288854 -0.22754809 -0.017247377 3.6882176e-42
0.77532214 -0.22926763 -0.016516503 4.4841551e-43
0.77321178 -0.22222085 -0.017615959 2.9707527e-42
0.77356756 -0.21776156 -0.018672576 2.9693514e-42
0.7764774 -0.21687217 -0.018043047 2.249084e-42
0.77412045 -0.21366675 -0.019361161 4.4196954e-42
0.77739882 -0.21301851 -0.017356286 3.3350903e-42
0.78130579 -0.21188264 -0.017711228 8.8281803e-44
0.7778213 -0.20912653 -0.016267776 6.5720898e-42
0.78329617 -0.20910537 -0.017444942 4.4701421e-43
0.78763831 -0.20713294 -0.017574674 1.8805425e-42
0.79204559 -0.20592855 -0.017004766 2.6050138e-42
0.79775822 -0.20574562 -0.018766239 1.8407485e-39
0.80249643 -0.20530042 -0.01802548 8.3844003e-39
0.80522162 -0.205723 -0.016752258 5.7085704e-39
0.79408288 -0.20495284 -0.017767876 3.3294852e-42
0.79751462 -0.20455913 -0.016666645 4.6991605e-39
0.80266112 -0.20460534 -0.017902199 8.2003804e-39
0.782386 -0.24075004 -0.012301316 1.3456593e-38
0.78661895 -0.24234873 -0.012500416 1.308781e-38
0.7745924 -0.23539482 -0.012478423 6.2105548e-42
0.77741456 -0.23762284 -0.012599115 7.9288396e-39
0.7812326 -0.23991989 -0.013991654 1.3640625e-38
0.77376735 -0.23258194 -0.012480845 1.0189065e-39
0.77541023 -0.23228365 -0.01297015 3.8689724e-39
0.77314872 -0.22744586 -0.012453177 3.6952241e-42
0.77520037 -0.22786419 -0.010700244 3.3252813e-42
0.77328521 -0.22287545 -0.012321574 3.3322877e-42
0.77509081 -0.2211663 -0.012917861 2.2406762e-42
0.77456653 -0.21845689 -0.013819533 8.4077908e-44
0.77670342 -0.21723291 -0.012251195 1.5302179e-42
0.7789197 -0.21218556 -0.01261979 3.3420968e-42
0.78042263 -0.2117977 -0.012464737 2.7956885e-40
0.77821416 -0.20840211 -0.01196521 9.9493592e-41
0.78260702 -0.20858425 -0.012017147 2.9707527e-42
0.78710628 -0.20733571 -0.012545574 2.2504853e-42
0.79225898 -0.20561618 -0.012514218 4.4056824e-42
0.79751652 -0.20531552 -0.012576128 1.9394391e-39
0.80292225 -0.20603883 -0.013139315 5.6199874e-39
0.80547702 -0.20644063 -0.011162043 5.7114543e-39
0.79688072 -0.20468163 -0.012764191 1.2004307e-39
0.80433667 -0.20396468 -0.013025288 5.7114501e-39
0.80542362 -0.2042197 -0.010790169 5.5277721e-39
0.78309929 -0.24066335 -0.0076063201 9.6772845e-39
0.78637218 -0.24247015 -0.0077061411 7.9262962e-39
0.77495635 -0.235497 -0.0083121508 6.5608794e-42
0.77756697 -0.23721454 -0.0074830558 6.2704043e-39
0.78091961 -0.23931469 -0.0066326456 9.7687543e-39
0.77365476 -0.23238462 -0.0075480575 1.2043824e-39
0.77550745 -0.23186801 -0.0067964881 1.2972759e-39
0.77386224 -0.22737651 -0.0074922359 5.8630328e-42
0.77542484 -0.22703947 -0.0072238236 1.1129337e-39
0.77334499 -0.22266914 -0.0073628277 1.9062003e-40
0.77589339 -0.22216372 -0.007440208 1.3873583e-39
0.7728762 -0.21835274 -0.0063712345 9.2494947e-40
0.77725869 -0.2171763 -0.0075202221 2.4004383e-39
0.7745688 -0.21445864 -0.0054065883 1.6535322e-43
0.77861077 -0.21337759 -0.0077723768 1.9416195e-39
0.78067946 -0.21112339 -0.0075760745 2.4011543e-39
0.77978897 -0.2079103 -0.0093841702 2.8497646e-40
0.78252715 -0.20875287 -0.0081555191 5.5832495e-40
0.78750968 -0.20823243 -0.0075543337 1.8512316e-39
0.79245269 -0.20633824 -0.0075485231 1.6682781e-39
0.79691452 -0.20544425 -0.0073247077 2.4969401e-39
0.79841095 -0.20282091 -0.0075258231 4.8845943e-39
0.79824495 -0.19977954 -0.0051123649 5.5274218e-39
0.7845692 -0.24074605 -0.0032147437 8.0188492e-39
0.78596616 -0.24230777 -0.0027375387 7.9270137e-39
0.77873099 -0.23591805 -0.0034847483 1.4838293e-39
0.78184897 -0.23801005 -0.0022248488 6.9157484e-39
0.77386892 -0.23178996 -0.0026329912 4.8918419e-39
0.77695954 -0.23332518 -0.001973022 2.3165173e-39
0.77397197 -0.22778279 -0.0023499434 3.4207265e-39
0.77573258 -0.22715987 -0.0024489111 2.0431604e-39
0.77430803 -0.22247842 -0.0028260732 6.9237849e-39
0.77681732 -0.22235128 -0.0021538476 2.5959979e-39
0.77381045 -0.21907322 -0.0027886878 7.105665e-39
0.77712554 -0.21731004 -0.0025139209 6.4646116e-39
0.7744782 -0.21467343 -0.0032944828 8.7698611e-39
0.77766043 -0.21363701 -0.0017957452 5.2686006e-39
0.78116864 -0.2116331 -0.0029624754 4.5295796e-39
0.7772541 -0.2093742 -0.00022698194 3.8896472e-39
0.78338683 -0.20892027 -0.0025114641 3.6090638e-39
0.78790808 -0.20863472 -0.0025189645 2.7803863e-39
0.79257447 -0.2074827 -0.0023890259 3.9760218e-39
0.79630566 -0.20619854 -0.0012782849 4.7952868e-39
0.79448938 -0.20399818 -0.0019136295 4.0602609e-39
0.79613543 -0.20267864 -0.0025862984 5.0707905e-39
0.78480607 -0.24061975 0.00038817525 7.9270095e-39
0.7867983 -0.24108785 0.0016718544 7.9266564e-39
0.78314006 -0.23719811 0.0019152021 7.927378e-39
0.78619397 -0.23834348 0.0038344455 8.0184905e-39
0.77463102 -0.23230079 0.00033720335 1.0328832e-38
0.777201 -0.23167545 0.0021362437 8.1197693e-39
0.78144789 -0.23353383 0.0026930377 6.8275619e-39
0.77437383 -0.22756563 0.0011064162 4.9027061e-39
0.77668357 -0.22769935 0.0025224881 9.0413655e-39
0.77712142 -0.22223563 0.0022659467 7.8449943e-39
0.78103673 -0.2210218 0.0048651025 1.4099798e-38
0.77812594 -0.21751955 0.0022074499 5.6366418e-39
0.78183478 -0.21680886 0.0042328732 1.1066015e-38
0.77867627 -0.21260247 0.0021843917 5.0852939e-39
0.78197175 -0.21236072 0.0030923854 5.2656662e-39
0.78616095 -0.21102042 0.0040809736 1.0605386e-38
0.79429156 -0.21096495 0.0044808164 1.1888176e-38
0.79533434 -0.21016559 0.004648 1.1611948e-38
0.77842671 -0.20928288 0.0025712997 6.3742279e-39
0.78294146 -0.20861794 0.00098653999 1.7655212e-39
0.78754997 -0.20857292 0.0024294746 6.6446196e-39
0.79248375 -0.20878111 0.0025143474 1.1153862e-38
0.7980997 -0.20707425 0.0025118475 6.8192228e-39
0.79898483 -0.20393032 0.00075664371 5.3459032e-39
0.78375524 -0.23557994 0.0051454753 8.2025216e-39
0.78686941 -0.2368121 0.005618277 8.2021671e-39
0.77829999 -0.23098622 0.0061973305 1.2719767e-38
0.78242171 -0.23170996 0.0066353604 1.2717226e-38
0.78664595 -0.23263957 0.0069579147 1.1979663e-38
0.79208928 -0.23270178 0.008995939 1.4098722e-38
0.7789396 -0.22881356 0.0057361177 1.4283114e-38
0.78169394 -0.22716573 0.0067758062 1.4190923e-38
0.7878198 -0.22745779 0.0074802637 1.4098364e-38
0.79214382 -0.22730607 0.0085779466 1.3822498e-38
0.77871239 -0.22424325 0.0053962842 1.4099445e-38
0.78225231 -0.2226868 0.0059864237 1.4098722e-38
0.78722548 -0.22254495 0.0072222711 1.3730658e-38
0.79136586 -0.2228415 0.0084915524 1.3638099e-38
0.78306097 -0.21761721 0.0055649518 1.2995631e-38
0.78750122 -0.2175118 0.0071070185 1.3453711e-38
0.79245901 -0.21746537 0.0085799601 1.2901255e-38
0.79520583 -0.2157985 0.0089603961 1.2532119e-38
0.77961063 -0.21145813 0.0053756386 7.1981843e-39
0.78350389 -0.21346173 0.0055586435 1.1798534e-38
0.7873928 -0.21228933 0.0061697946 1.2901976e-38
0.79225528 -0.21284097 0.0071067465 1.2348442e-38
0.79747957 -0.21250837 0.0074550374 1.1610514e-38
0.80144805 -0.21184477 0.0060844049 8.1081609e-39
0.79097819 -0.20968267 0.0051924735 1.2071864e-38
0.7976867 -0.20892787 0.005772233 9.3981837e-39
0.80011034 -0.20990139 0.0065499991 5.6185258e-39
0.79355091 -0.23260364 0.011236044 1.409872e-38
0.79290599 -0.22822015 0.010172879 1.3913976e-38
0.79539955 -0.21394831 0.010093659 1.2071864e-38
